18.39609909 11.04119968 0.07150000 987.000000 0.577350 0.577350 0.577350
18.34210014 11.07120037 0.07010000 951.000000 0.577350 0.577350 0.577350
18.34329987 11.07040024 0.06940000 1003.000000 0.577350 0.577350 0.577350
18.34410095 11.06939983 0.06810000 1032.000000 0.577350 0.577350 0.577350
18.34499931 11.06840038 0.06810000 1060.000000 0.577350 0.577350 0.577350
18.34519958 11.06729984 0.06810000 1068.000000 0.577350 0.577350 0.577350
18.34589958 11.06639957 0.06810000 1060.000000 0.577350 0.577350 0.577350
18.34650040 11.06519985 0.06870000 1043.000000 0.577350 0.577350 0.577350
18.34729958 11.06410027 0.06870000 1016.000000 0.577350 0.577350 0.577350
18.34819984 11.06309986 0.06870000 995.000000 0.577350 0.577350 0.577350
18.34869957 11.06190014 0.06870000 981.000000 0.577350 0.577350 0.577350
18.34910011 11.06050014 0.06870000 951.000000 0.577350 0.577350 0.577350
18.35020065 11.05949974 0.06870000 946.000000 0.577350 0.577350 0.577350
18.35050011 11.05819988 0.06870000 946.000000 0.577350 0.577350 0.577350
18.35099983 11.05690002 0.06940000 946.000000 0.577350 0.577350 0.577350
18.35190010 11.05580044 0.06940000 946.000000 0.577350 0.577350 0.577350
18.35269928 11.05480003 0.06940000 965.000000 0.577350 0.577350 0.577350
18.35330009 11.05360031 0.06740000 1000.000000 0.577350 0.577350 0.577350
18.35379982 11.05249977 0.06740000 1008.000000 0.577350 0.577350 0.577350
18.35470009 11.05160046 0.06740000 1014.000000 0.577350 0.577350 0.577350
18.35569954 11.05090046 0.06940000 1014.000000 0.577350 0.577350 0.577350
18.35610008 11.04959965 0.07010000 981.000000 0.577350 0.577350 0.577350
18.35729980 11.04870033 0.06810000 938.000000 0.577350 0.577350 0.577350
18.35810089 11.04769993 0.07010000 892.000000 0.577350 0.577350 0.577350
18.36020088 11.04730034 0.06810000 881.000000 0.577350 0.577350 0.577350
18.36289978 11.04740047 0.06810000 871.000000 0.577350 0.577350 0.577350
18.36669922 11.04810047 0.06810000 874.000000 0.577350 0.577350 0.577350
18.37100029 11.04920006 0.06880000 875.000000 0.577350 0.577350 0.577350
18.37520027 11.05010033 0.06880000 884.000000 0.577350 0.577350 0.577350
18.38050079 11.05169964 0.06810000 918.000000 0.577350 0.577350 0.577350
18.38330078 11.05189991 0.06880000 915.000000 0.577350 0.577350 0.577350
18.38629913 11.05210018 0.06880000 927.000000 0.577350 0.577350 0.577350
18.38829994 11.05169964 0.06950000 938.000000 0.577350 0.577350 0.577350
18.38929939 11.05070019 0.06880000 936.000000 0.577350 0.577350 0.577350
18.39049911 11.05000019 0.06950000 949.000000 0.577350 0.577350 0.577350
18.39109993 11.04899979 0.06950000 958.000000 0.577350 0.577350 0.577350
18.39159966 11.04800034 0.06880000 949.000000 0.577350 0.577350 0.577350
18.39240074 11.04689980 0.06950000 963.000000 0.577350 0.577350 0.577350
18.39279938 11.04549980 0.06820000 944.000000 0.577350 0.577350 0.577350
18.39380074 11.04459953 0.06950000 968.000000 0.577350 0.577350 0.577350
18.39419937 11.04329967 0.07020000 971.000000 0.577350 0.577350 0.577350
18.39489937 11.04209995 0.06820000 952.000000 0.577350 0.577350 0.577350
18.39579964 11.04109955 0.06950000 966.000000 0.577350 0.577350 0.577350
18.34210014 11.07120037 0.06810000 959.000000 0.577350 0.577350 0.577350
18.34320068 11.07030010 0.06810000 1003.000000 0.577350 0.577350 0.577350
18.34379959 11.06919956 0.06670000 1016.000000 0.577350 0.577350 0.577350
18.34499931 11.06840038 0.06670000 1035.000000 0.577350 0.577350 0.577350
18.34510040 11.06719971 0.06670000 1035.000000 0.577350 0.577350 0.577350
18.34560013 11.06630039 0.06670000 1041.000000 0.577350 0.577350 0.577350
18.34630013 11.06509972 0.06670000 1013.000000 0.577350 0.577350 0.577350
18.34720039 11.06400013 0.06670000 986.000000 0.577350 0.577350 0.577350
18.34810066 11.06299973 0.06740000 976.000000 0.577350 0.577350 0.577350
18.34849930 11.06169987 0.06740000 956.000000 0.577350 0.577350 0.577350
18.34889984 11.06040001 0.06740000 946.000000 0.577350 0.577350 0.577350
18.35000038 11.05939960 0.06740000 954.000000 0.577350 0.577350 0.577350
18.35040092 11.05819988 0.06740000 954.000000 0.577350 0.577350 0.577350
18.35099983 11.05700016 0.06740000 965.000000 0.577350 0.577350 0.577350
18.35169983 11.05570030 0.06740000 968.000000 0.577350 0.577350 0.577350
18.35260010 11.05469990 0.06810000 976.000000 0.577350 0.577350 0.577350
18.35330009 11.05360031 0.06610000 998.000000 0.577350 0.577350 0.577350
18.35379982 11.05239964 0.06610000 1006.000000 0.577350 0.577350 0.577350
18.35460091 11.05150032 0.06610000 1011.000000 0.577350 0.577350 0.577350
18.35560036 11.05090046 0.06740000 1019.000000 0.577350 0.577350 0.577350
18.35610008 11.04959965 0.06810000 998.000000 0.577350 0.577350 0.577350
18.35729980 11.04870033 0.06670000 957.000000 0.577350 0.577350 0.577350
18.35820007 11.04769993 0.06810000 908.000000 0.577350 0.577350 0.577350
18.36050034 11.04749966 0.06610000 895.000000 0.577350 0.577350 0.577350
18.36330032 11.04759979 0.06670000 877.000000 0.577350 0.577350 0.577350
18.36730003 11.04850006 0.06680000 877.000000 0.577350 0.577350 0.577350
18.37170029 11.04959965 0.06680000 881.000000 0.577350 0.577350 0.577350
18.37610054 11.05060005 0.06680000 898.000000 0.577350 0.577350 0.577350
18.38109970 11.05200005 0.06680000 929.000000 0.577350 0.577350 0.577350
18.38389969 11.05220032 0.06680000 932.000000 0.577350 0.577350 0.577350
18.38649940 11.05220032 0.06680000 935.000000 0.577350 0.577350 0.577350
18.38839912 11.05179977 0.06750000 946.000000 0.577350 0.577350 0.577350
18.38949966 11.05080032 0.06750000 933.000000 0.577350 0.577350 0.577350
18.39049911 11.05000019 0.06750000 952.000000 0.577350 0.577350 0.577350
18.39109993 11.04899979 0.06750000 952.000000 0.577350 0.577350 0.577350
18.39159966 11.04800034 0.06750000 938.000000 0.577350 0.577350 0.577350
18.39240074 11.04689980 0.06750000 949.000000 0.577350 0.577350 0.577350
18.39279938 11.04549980 0.06610000 925.000000 0.577350 0.577350 0.577350
18.39369965 11.04450035 0.06820000 952.000000 0.577350 0.577350 0.577350
18.39430046 11.04329967 0.06820000 960.000000 0.577350 0.577350 0.577350
18.39480019 11.04199982 0.06610000 944.000000 0.577350 0.577350 0.577350
18.39559937 11.04090023 0.06820000 947.000000 0.577350 0.577350 0.577350
18.34210014 11.07120037 0.06670000 954.000000 0.577350 0.577350 0.577350
18.34320068 11.07030010 0.06610000 984.000000 0.577350 0.577350 0.577350
18.34370041 11.06910038 0.06470000 997.000000 0.577350 0.577350 0.577350
18.34490013 11.06830025 0.06470000 1000.000000 0.577350 0.577350 0.577350
18.34510040 11.06719971 0.06470000 1000.000000 0.577350 0.577350 0.577350
18.34539986 11.06610012 0.06540000 1005.000000 0.577350 0.577350 0.577350
18.34639931 11.06509972 0.06540000 978.000000 0.577350 0.577350 0.577350
18.34709930 11.06389999 0.06470000 959.000000 0.577350 0.577350 0.577350
18.34779930 11.06280041 0.06540000 954.000000 0.577350 0.577350 0.577350
18.34840012 11.06169987 0.06540000 940.000000 0.577350 0.577350 0.577350
18.34880066 11.06040001 0.06540000 943.000000 0.577350 0.577350 0.577350
18.34980011 11.05930042 0.06540000 954.000000 0.577350 0.577350 0.577350
18.35029984 11.05809975 0.06540000 962.000000 0.577350 0.577350 0.577350
18.35099983 11.05700016 0.06610000 968.000000 0.577350 0.577350 0.577350
18.35169983 11.05570030 0.06610000 979.000000 0.577350 0.577350 0.577350
18.35260010 11.05480003 0.06610000 984.000000 0.577350 0.577350 0.577350
18.35330009 11.05360031 0.06400000 989.000000 0.577350 0.577350 0.577350
18.35379982 11.05239964 0.06400000 992.000000 0.577350 0.577350 0.577350
18.35460091 11.05150032 0.06400000 1000.000000 0.577350 0.577350 0.577350
18.35560036 11.05090046 0.06610000 1017.000000 0.577350 0.577350 0.577350
18.35610008 11.04959965 0.06670000 1011.000000 0.577350 0.577350 0.577350
18.35729980 11.04870033 0.06470000 981.000000 0.577350 0.577350 0.577350
18.35840034 11.04780006 0.06670000 925.000000 0.577350 0.577350 0.577350
18.36090088 11.04769993 0.06470000 903.000000 0.577350 0.577350 0.577350
18.36389923 11.04800034 0.06470000 877.000000 0.577350 0.577350 0.577350
18.36800003 11.04889965 0.06470000 875.000000 0.577350 0.577350 0.577350
18.37240028 11.05010033 0.06540000 876.000000 0.577350 0.577350 0.577350
18.37709999 11.05119991 0.06540000 895.000000 0.577350 0.577350 0.577350
18.38170052 11.05239964 0.06550000 923.000000 0.577350 0.577350 0.577350
18.38450050 11.05259991 0.06550000 935.000000 0.577350 0.577350 0.577350
18.38689995 11.05249977 0.06550000 938.000000 0.577350 0.577350 0.577350
18.38850021 11.05189991 0.06610000 943.000000 0.577350 0.577350 0.577350
18.38949966 11.05080032 0.06550000 933.000000 0.577350 0.577350 0.577350
18.39039993 11.04990005 0.06610000 947.000000 0.577350 0.577350 0.577350
18.39109993 11.04899979 0.06610000 944.000000 0.577350 0.577350 0.577350
18.39159966 11.04800034 0.06550000 930.000000 0.577350 0.577350 0.577350
18.39229965 11.04689980 0.06610000 936.000000 0.577350 0.577350 0.577350
18.39279938 11.04549980 0.06480000 914.000000 0.577350 0.577350 0.577350
18.39380074 11.04459953 0.06610000 936.000000 0.577350 0.577350 0.577350
18.39450073 11.04339981 0.06680000 949.000000 0.577350 0.577350 0.577350
18.39480019 11.04199982 0.06480000 955.000000 0.577350 0.577350 0.577350
18.39559937 11.04100037 0.06610000 938.000000 0.577350 0.577350 0.577350
18.34210014 11.07129955 0.06470000 948.000000 0.577350 0.577350 0.577350
18.34320068 11.07030010 0.06470000 970.000000 0.577350 0.577350 0.577350
18.34350014 11.06900024 0.06340000 975.000000 0.577350 0.577350 0.577350
18.34460068 11.06820011 0.06340000 975.000000 0.577350 0.577350 0.577350
18.34469986 11.06700039 0.06340000 973.000000 0.577350 0.577350 0.577350
18.34530067 11.06610012 0.06340000 973.000000 0.577350 0.577350 0.577350
18.34639931 11.06509972 0.06340000 954.000000 0.577350 0.577350 0.577350
18.34670067 11.06369972 0.06340000 946.000000 0.577350 0.577350 0.577350
18.34770012 11.06270027 0.06400000 943.000000 0.577350 0.577350 0.577350
18.34840012 11.06169987 0.06400000 940.000000 0.577350 0.577350 0.577350
18.34889984 11.06040001 0.06400000 946.000000 0.577350 0.577350 0.577350
18.34959984 11.05920029 0.06400000 954.000000 0.577350 0.577350 0.577350
18.35029984 11.05809975 0.06400000 960.000000 0.577350 0.577350 0.577350
18.35110092 11.05700016 0.06400000 962.000000 0.577350 0.577350 0.577350
18.35190010 11.05580044 0.06400000 973.000000 0.577350 0.577350 0.577350
18.35260010 11.05480003 0.06470000 981.000000 0.577350 0.577350 0.577350
18.35350037 11.05379963 0.06270000 979.000000 0.577350 0.577350 0.577350
18.35390091 11.05249977 0.06270000 981.000000 0.577350 0.577350 0.577350
18.35470009 11.05160046 0.06270000 989.000000 0.577350 0.577350 0.577350
18.35560036 11.05090046 0.06400000 1011.000000 0.577350 0.577350 0.577350
18.35619926 11.04959965 0.06470000 1014.000000 0.577350 0.577350 0.577350
18.35740089 11.04880047 0.06340000 992.000000 0.577350 0.577350 0.577350
18.35860062 11.04790020 0.06540000 944.000000 0.577350 0.577350 0.577350
18.36140060 11.04810047 0.06270000 911.000000 0.577350 0.577350 0.577350
18.36459923 11.04839993 0.06340000 877.000000 0.577350 0.577350 0.577350
18.36870003 11.04930019 0.06340000 867.000000 0.577350 0.577350 0.577350
18.37330055 11.05060005 0.06340000 862.000000 0.577350 0.577350 0.577350
18.37800026 11.05169964 0.06340000 879.000000 0.577350 0.577350 0.577350
18.38240051 11.05280018 0.06340000 915.000000 0.577350 0.577350 0.577350
18.38489914 11.05280018 0.06410000 932.000000 0.577350 0.577350 0.577350
18.38710022 11.05259991 0.06340000 935.000000 0.577350 0.577350 0.577350
18.38859940 11.05189991 0.06410000 941.000000 0.577350 0.577350 0.577350
18.38949966 11.05080032 0.06410000 936.000000 0.577350 0.577350 0.577350
18.39060020 11.05000019 0.06410000 938.000000 0.577350 0.577350 0.577350
18.39100075 11.04889965 0.06410000 933.000000 0.577350 0.577350 0.577350
18.39170074 11.04810047 0.06410000 925.000000 0.577350 0.577350 0.577350
18.39229965 11.04679966 0.06410000 930.000000 0.577350 0.577350 0.577350
18.39279938 11.04549980 0.06340000 917.000000 0.577350 0.577350 0.577350
18.39380074 11.04459953 0.06480000 928.000000 0.577350 0.577350 0.577350
18.39450073 11.04339981 0.06480000 949.000000 0.577350 0.577350 0.577350
18.39489937 11.04209995 0.06280000 982.000000 0.577350 0.577350 0.577350
18.39579964 11.04109955 0.06480000 949.000000 0.577350 0.577350 0.577350
18.34219933 11.07129955 0.06340000 956.000000 0.577350 0.577350 0.577350
18.34300041 11.07019997 0.06270000 965.000000 0.577350 0.577350 0.577350
18.34329987 11.06890011 0.06130000 962.000000 0.577350 0.577350 0.577350
18.34440041 11.06809998 0.06130000 959.000000 0.577350 0.577350 0.577350
18.34460068 11.06690025 0.06130000 956.000000 0.577350 0.577350 0.577350
18.34530067 11.06610012 0.06200000 951.000000 0.577350 0.577350 0.577350
18.34630013 11.06499958 0.06200000 943.000000 0.577350 0.577350 0.577350
18.34670067 11.06369972 0.06200000 935.000000 0.577350 0.577350 0.577350
18.34749985 11.06260014 0.06200000 932.000000 0.577350 0.577350 0.577350
18.34860039 11.06180000 0.06200000 940.000000 0.577350 0.577350 0.577350
18.34889984 11.06040001 0.06200000 951.000000 0.577350 0.577350 0.577350
18.34950066 11.05910015 0.06200000 951.000000 0.577350 0.577350 0.577350
18.35040092 11.05819988 0.06200000 949.000000 0.577350 0.577350 0.577350
18.35120010 11.05710030 0.06270000 954.000000 0.577350 0.577350 0.577350
18.35219955 11.05599976 0.06270000 957.000000 0.577350 0.577350 0.577350
18.35260010 11.05480003 0.06270000 970.000000 0.577350 0.577350 0.577350
18.35350037 11.05379963 0.06070000 962.000000 0.577350 0.577350 0.577350
18.35390091 11.05249977 0.06070000 976.000000 0.577350 0.577350 0.577350
18.35479927 11.05160046 0.06070000 987.000000 0.577350 0.577350 0.577350
18.35560036 11.05090046 0.06270000 1006.000000 0.577350 0.577350 0.577350
18.35630035 11.04969978 0.06340000 1009.000000 0.577350 0.577350 0.577350
18.35759926 11.04889965 0.06130000 992.000000 0.577350 0.577350 0.577350
18.35880089 11.04810047 0.06340000 957.000000 0.577350 0.577350 0.577350
18.36190033 11.04839993 0.06140000 917.000000 0.577350 0.577350 0.577350
18.36529922 11.04880047 0.06140000 877.000000 0.577350 0.577350 0.577350
18.36949921 11.04979992 0.06140000 859.000000 0.577350 0.577350 0.577350
18.37430000 11.05109978 0.06210000 843.000000 0.577350 0.577350 0.577350
18.37879944 11.05230045 0.06210000 868.000000 0.577350 0.577350 0.577350
18.38290024 11.05309963 0.06210000 910.000000 0.577350 0.577350 0.577350
18.38520050 11.05300045 0.06210000 929.000000 0.577350 0.577350 0.577350
18.38719940 11.05270004 0.06210000 933.000000 0.577350 0.577350 0.577350
18.38879967 11.05200005 0.06280000 941.000000 0.577350 0.577350 0.577350
18.38949966 11.05080032 0.06280000 936.000000 0.577350 0.577350 0.577350
18.39069939 11.05010033 0.06280000 933.000000 0.577350 0.577350 0.577350
18.39080048 11.04880047 0.06280000 930.000000 0.577350 0.577350 0.577350
18.39170074 11.04810047 0.06210000 925.000000 0.577350 0.577350 0.577350
18.39229965 11.04679966 0.06280000 936.000000 0.577350 0.577350 0.577350
18.39279938 11.04559994 0.06140000 936.000000 0.577350 0.577350 0.577350
18.39380074 11.04459953 0.06280000 936.000000 0.577350 0.577350 0.577350
18.39450073 11.04339981 0.06350000 960.000000 0.577350 0.577350 0.577350
18.39509964 11.04220009 0.06140000 1012.000000 0.577350 0.577350 0.577350
18.39590073 11.04109955 0.06280000 982.000000 0.577350 0.577350 0.577350
18.34219933 11.07129955 0.06130000 973.000000 0.577350 0.577350 0.577350
18.34289932 11.07009983 0.06130000 973.000000 0.577350 0.577350 0.577350
18.34329987 11.06890011 0.06000000 962.000000 0.577350 0.577350 0.577350
18.34429932 11.06799984 0.06000000 948.000000 0.577350 0.577350 0.577350
18.34460068 11.06690025 0.06000000 948.000000 0.577350 0.577350 0.577350
18.34530067 11.06610012 0.06000000 940.000000 0.577350 0.577350 0.577350
18.34639931 11.06509972 0.06000000 937.000000 0.577350 0.577350 0.577350
18.34670067 11.06369972 0.06000000 932.000000 0.577350 0.577350 0.577350
18.34749985 11.06260014 0.06070000 927.000000 0.577350 0.577350 0.577350
18.34860039 11.06180000 0.06070000 940.000000 0.577350 0.577350 0.577350
18.34900093 11.06050014 0.06070000 948.000000 0.577350 0.577350 0.577350
18.34980011 11.05930042 0.06070000 943.000000 0.577350 0.577350 0.577350
18.35050011 11.05819988 0.06070000 932.000000 0.577350 0.577350 0.577350
18.35120010 11.05710030 0.06070000 941.000000 0.577350 0.577350 0.577350
18.35230064 11.05609989 0.06070000 941.000000 0.577350 0.577350 0.577350
18.35280037 11.05490017 0.06130000 951.000000 0.577350 0.577350 0.577350
18.35350037 11.05370045 0.05930000 951.000000 0.577350 0.577350 0.577350
18.35400009 11.05249977 0.05930000 976.000000 0.577350 0.577350 0.577350
18.35490036 11.05169964 0.05930000 990.000000 0.577350 0.577350 0.577350
18.35569954 11.05090046 0.06130000 998.000000 0.577350 0.577350 0.577350
18.35630035 11.04969978 0.06130000 1006.000000 0.577350 0.577350 0.577350
18.35779953 11.04899979 0.06000000 984.000000 0.577350 0.577350 0.577350
18.35910034 11.04819965 0.06200000 960.000000 0.577350 0.577350 0.577350
18.36260033 11.04880047 0.05930000 912.000000 0.577350 0.577350 0.577350
18.36610031 11.04930019 0.06000000 874.000000 0.577350 0.577350 0.577350
18.37030029 11.05020046 0.06000000 848.000000 0.577350 0.577350 0.577350
18.37520027 11.05169964 0.06000000 833.000000 0.577350 0.577350 0.577350
18.37949944 11.05270004 0.06010000 863.000000 0.577350 0.577350 0.577350
18.38330078 11.05340004 0.06010000 905.000000 0.577350 0.577350 0.577350
18.38540077 11.05309963 0.06070000 924.000000 0.577350 0.577350 0.577350
18.38750076 11.05280018 0.06010000 930.000000 0.577350 0.577350 0.577350
18.38879967 11.05200005 0.06080000 935.000000 0.577350 0.577350 0.577350
18.38960075 11.05090046 0.06080000 936.000000 0.577350 0.577350 0.577350
18.39060020 11.05000019 0.06080000 936.000000 0.577350 0.577350 0.577350
18.39069939 11.04880047 0.06080000 933.000000 0.577350 0.577350 0.577350
18.39170074 11.04810047 0.06080000 933.000000 0.577350 0.577350 0.577350
18.39220047 11.04679966 0.06080000 949.000000 0.577350 0.577350 0.577350
18.39279938 11.04559994 0.06010000 960.000000 0.577350 0.577350 0.577350
18.39380074 11.04459953 0.06140000 955.000000 0.577350 0.577350 0.577350
18.39439964 11.04339981 0.06140000 982.000000 0.577350 0.577350 0.577350
18.39520073 11.04230022 0.05940000 1039.000000 0.577350 0.577350 0.577350
18.39599991 11.04119968 0.06140000 1017.000000 0.577350 0.577350 0.577350
18.34219933 11.07129955 0.06000000 984.000000 0.577350 0.577350 0.577350
18.34280014 11.07009983 0.05930000 978.000000 0.577350 0.577350 0.577350
18.34339905 11.06900024 0.05800000 965.000000 0.577350 0.577350 0.577350
18.34429932 11.06799984 0.05800000 935.000000 0.577350 0.577350 0.577350
18.34469986 11.06700039 0.05800000 940.000000 0.577350 0.577350 0.577350
18.34530067 11.06610012 0.05860000 929.000000 0.577350 0.577350 0.577350
18.34639931 11.06509972 0.05860000 929.000000 0.577350 0.577350 0.577350
18.34690094 11.06379986 0.05860000 927.000000 0.577350 0.577350 0.577350
18.34779930 11.06280041 0.05860000 924.000000 0.577350 0.577350 0.577350
18.34860039 11.06180000 0.05870000 940.000000 0.577350 0.577350 0.577350
18.34910011 11.06050014 0.05860000 935.000000 0.577350 0.577350 0.577350
18.34980011 11.05930042 0.05860000 929.000000 0.577350 0.577350 0.577350
18.35050011 11.05819988 0.05860000 916.000000 0.577350 0.577350 0.577350
18.35140038 11.05720043 0.05930000 930.000000 0.577350 0.577350 0.577350
18.35230064 11.05609989 0.05930000 933.000000 0.577350 0.577350 0.577350
18.35289955 11.05500031 0.05930000 943.000000 0.577350 0.577350 0.577350
18.35350037 11.05370045 0.05730000 951.000000 0.577350 0.577350 0.577350
18.35400009 11.05259991 0.05730000 984.000000 0.577350 0.577350 0.577350
18.35470009 11.05160046 0.05730000 987.000000 0.577350 0.577350 0.577350
18.35580063 11.05099964 0.05930000 992.000000 0.577350 0.577350 0.577350
18.35639954 11.04979992 0.05930000 1003.000000 0.577350 0.577350 0.577350
18.35810089 11.04920006 0.05800000 971.000000 0.577350 0.577350 0.577350
18.35950089 11.04850006 0.06000000 960.000000 0.577350 0.577350 0.577350
18.36310005 11.04909992 0.05800000 898.000000 0.577350 0.577350 0.577350
18.36709976 11.04990005 0.05800000 872.000000 0.577350 0.577350 0.577350
18.37120056 11.05080032 0.05800000 840.000000 0.577350 0.577350 0.577350
18.37590027 11.05210018 0.05870000 833.000000 0.577350 0.577350 0.577350
18.37999916 11.05300045 0.05870000 855.000000 0.577350 0.577350 0.577350
18.38349915 11.05350018 0.05870000 899.000000 0.577350 0.577350 0.577350
18.38579941 11.05340004 0.05870000 916.000000 0.577350 0.577350 0.577350
18.38750076 11.05280018 0.05870000 927.000000 0.577350 0.577350 0.577350
18.38879967 11.05200005 0.05940000 927.000000 0.577350 0.577350 0.577350
18.38969994 11.05090046 0.05940000 930.000000 0.577350 0.577350 0.577350
18.39039993 11.04990005 0.05940000 944.000000 0.577350 0.577350 0.577350
18.39069939 11.04880047 0.05940000 941.000000 0.577350 0.577350 0.577350
18.39170074 11.04800034 0.05870000 941.000000 0.577350 0.577350 0.577350
18.39209938 11.04669952 0.05940000 966.000000 0.577350 0.577350 0.577350
18.39279938 11.04559994 0.05810000 985.000000 0.577350 0.577350 0.577350
18.39380074 11.04459953 0.05940000 985.000000 0.577350 0.577350 0.577350
18.39430046 11.04329967 0.06010000 1009.000000 0.577350 0.577350 0.577350
18.39520073 11.04230022 0.05810000 1055.000000 0.577350 0.577350 0.577350
18.39609909 11.04119968 0.05940000 1050.000000 0.577350 0.577350 0.577350
18.34219933 11.07129955 0.05800000 992.000000 0.577350 0.577350 0.577350
18.34280014 11.07009983 0.05800000 984.000000 0.577350 0.577350 0.577350
18.34350014 11.06900024 0.05660000 959.000000 0.577350 0.577350 0.577350
18.34429932 11.06809998 0.05660000 921.000000 0.577350 0.577350 0.577350
18.34469986 11.06700039 0.05660000 924.000000 0.577350 0.577350 0.577350
18.34530067 11.06610012 0.05660000 916.000000 0.577350 0.577350 0.577350
18.34639931 11.06509972 0.05660000 913.000000 0.577350 0.577350 0.577350
18.34709930 11.06400013 0.05660000 916.000000 0.577350 0.577350 0.577350
18.34790039 11.06289959 0.05730000 924.000000 0.577350 0.577350 0.577350
18.34869957 11.06180000 0.05730000 932.000000 0.577350 0.577350 0.577350
18.34930038 11.06060028 0.05730000 927.000000 0.577350 0.577350 0.577350
18.34980011 11.05930042 0.05730000 921.000000 0.577350 0.577350 0.577350
18.35050011 11.05819988 0.05730000 916.000000 0.577350 0.577350 0.577350
18.35149956 11.05729961 0.05730000 927.000000 0.577350 0.577350 0.577350
18.35230064 11.05609989 0.05730000 933.000000 0.577350 0.577350 0.577350
18.35289955 11.05500031 0.05800000 943.000000 0.577350 0.577350 0.577350
18.35350037 11.05370045 0.05600000 960.000000 0.577350 0.577350 0.577350
18.35429955 11.05270004 0.05600000 984.000000 0.577350 0.577350 0.577350
18.35460091 11.05150032 0.05530000 984.000000 0.577350 0.577350 0.577350
18.35580063 11.05099964 0.05800000 987.000000 0.577350 0.577350 0.577350
18.35670090 11.04990005 0.05800000 995.000000 0.577350 0.577350 0.577350
18.35840034 11.04940033 0.05660000 957.000000 0.577350 0.577350 0.577350
18.36000061 11.04880047 0.05870000 949.000000 0.577350 0.577350 0.577350
18.36370087 11.04950047 0.05600000 882.000000 0.577350 0.577350 0.577350
18.36790085 11.05039978 0.05670000 867.000000 0.577350 0.577350 0.577350
18.37210083 11.05140018 0.05670000 835.000000 0.577350 0.577350 0.577350
18.37660027 11.05259991 0.05670000 833.000000 0.577350 0.577350 0.577350
18.38050079 11.05329990 0.05670000 844.000000 0.577350 0.577350 0.577350
18.38389969 11.05379963 0.05670000 886.000000 0.577350 0.577350 0.577350
18.38599968 11.05350018 0.05740000 902.000000 0.577350 0.577350 0.577350
18.38769913 11.05290031 0.05740000 911.000000 0.577350 0.577350 0.577350
18.38890076 11.05210018 0.05740000 919.000000 0.577350 0.577350 0.577350
18.38960075 11.05090046 0.05740000 922.000000 0.577350 0.577350 0.577350
18.39030075 11.04990005 0.05810000 944.000000 0.577350 0.577350 0.577350
18.39080048 11.04889965 0.05740000 944.000000 0.577350 0.577350 0.577350
18.39159966 11.04800034 0.05740000 947.000000 0.577350 0.577350 0.577350
18.39220047 11.04679966 0.05740000 977.000000 0.577350 0.577350 0.577350
18.39279938 11.04559994 0.05670000 993.000000 0.577350 0.577350 0.577350
18.39380074 11.04459953 0.05810000 1015.000000 0.577350 0.577350 0.577350
18.39430046 11.04329967 0.05810000 1031.000000 0.577350 0.577350 0.577350
18.39520073 11.04230022 0.05600000 1053.000000 0.577350 0.577350 0.577350
18.39609909 11.04119968 0.05810000 1072.000000 0.577350 0.577350 0.577350
18.34230042 11.07139969 0.05660000 994.000000 0.577350 0.577350 0.577350
18.34250069 11.06989956 0.05600000 983.000000 0.577350 0.577350 0.577350
18.34350014 11.06900024 0.05460000 943.000000 0.577350 0.577350 0.577350
18.34440041 11.06809998 0.05460000 902.000000 0.577350 0.577350 0.577350
18.34480095 11.06709957 0.05460000 897.000000 0.577350 0.577350 0.577350
18.34530067 11.06610012 0.05530000 891.000000 0.577350 0.577350 0.577350
18.34620094 11.06499958 0.05530000 891.000000 0.577350 0.577350 0.577350
18.34709930 11.06400013 0.05530000 902.000000 0.577350 0.577350 0.577350
18.34799957 11.06299973 0.05530000 921.000000 0.577350 0.577350 0.577350
18.34860039 11.06180000 0.05530000 924.000000 0.577350 0.577350 0.577350
18.34919930 11.06060028 0.05530000 924.000000 0.577350 0.577350 0.577350
18.34980011 11.05930042 0.05530000 921.000000 0.577350 0.577350 0.577350
18.35070038 11.05830002 0.05530000 930.000000 0.577350 0.577350 0.577350
18.35140038 11.05720043 0.05600000 935.000000 0.577350 0.577350 0.577350
18.35230064 11.05609989 0.05600000 935.000000 0.577350 0.577350 0.577350
18.35280037 11.05490017 0.05600000 949.000000 0.577350 0.577350 0.577350
18.35330009 11.05360031 0.05390000 957.000000 0.577350 0.577350 0.577350
18.35429955 11.05270004 0.05390000 971.000000 0.577350 0.577350 0.577350
18.35470009 11.05160046 0.05390000 973.000000 0.577350 0.577350 0.577350
18.35580063 11.05099964 0.05600000 981.000000 0.577350 0.577350 0.577350
18.35680008 11.05010033 0.05660000 981.000000 0.577350 0.577350 0.577350
18.35869980 11.04959965 0.05460000 941.000000 0.577350 0.577350 0.577350
18.36039925 11.04899979 0.05660000 930.000000 0.577350 0.577350 0.577350
18.36450005 11.04990005 0.05460000 874.000000 0.577350 0.577350 0.577350
18.36870003 11.05090046 0.05460000 859.000000 0.577350 0.577350 0.577350
18.37310028 11.05200005 0.05470000 832.000000 0.577350 0.577350 0.577350
18.37730026 11.05300045 0.05530000 836.000000 0.577350 0.577350 0.577350
18.38109970 11.05360031 0.05530000 839.000000 0.577350 0.577350 0.577350
18.38430023 11.05399990 0.05470000 870.000000 0.577350 0.577350 0.577350
18.38610077 11.05360031 0.05540000 878.000000 0.577350 0.577350 0.577350
18.38780022 11.05300045 0.05540000 886.000000 0.577350 0.577350 0.577350
18.38879967 11.05200005 0.05600000 906.000000 0.577350 0.577350 0.577350
18.38960075 11.05090046 0.05600000 909.000000 0.577350 0.577350 0.577350
18.39030075 11.04990005 0.05600000 933.000000 0.577350 0.577350 0.577350
18.39080048 11.04889965 0.05600000 938.000000 0.577350 0.577350 0.577350
18.39159966 11.04800034 0.05540000 947.000000 0.577350 0.577350 0.577350
18.39220047 11.04679966 0.05600000 974.000000 0.577350 0.577350 0.577350
18.39299965 11.04570007 0.05470000 982.000000 0.577350 0.577350 0.577350
18.39380074 11.04459953 0.05600000 1023.000000 0.577350 0.577350 0.577350
18.39450073 11.04349995 0.05670000 1039.000000 0.577350 0.577350 0.577350
18.39520073 11.04230022 0.05470000 1026.000000 0.577350 0.577350 0.577350
18.39599991 11.04119968 0.05670000 1066.000000 0.577350 0.577350 0.577350
18.34230042 11.07139969 0.05460000 989.000000 0.577350 0.577350 0.577350
18.34250069 11.06989956 0.05460000 975.000000 0.577350 0.577350 0.577350
18.34350014 11.06910038 0.05330000 921.000000 0.577350 0.577350 0.577350
18.34420013 11.06799984 0.05330000 875.000000 0.577350 0.577350 0.577350
18.34490013 11.06709957 0.05330000 864.000000 0.577350 0.577350 0.577350
18.34550095 11.06620026 0.05330000 853.000000 0.577350 0.577350 0.577350
18.34609985 11.06499958 0.05330000 864.000000 0.577350 0.577350 0.577350
18.34720039 11.06410027 0.05330000 883.000000 0.577350 0.577350 0.577350
18.34779930 11.06289959 0.05390000 902.000000 0.577350 0.577350 0.577350
18.34840012 11.06169987 0.05390000 916.000000 0.577350 0.577350 0.577350
18.34910011 11.06060028 0.05390000 921.000000 0.577350 0.577350 0.577350
18.34980011 11.05930042 0.05390000 924.000000 0.577350 0.577350 0.577350
18.35079956 11.05850029 0.05390000 935.000000 0.577350 0.577350 0.577350
18.35120010 11.05710030 0.05390000 949.000000 0.577350 0.577350 0.577350
18.35230064 11.05609989 0.05390000 943.000000 0.577350 0.577350 0.577350
18.35260010 11.05480003 0.05460000 954.000000 0.577350 0.577350 0.577350
18.35330009 11.05360031 0.05260000 941.000000 0.577350 0.577350 0.577350
18.35429955 11.05280018 0.05260000 954.000000 0.577350 0.577350 0.577350
18.35479927 11.05169964 0.05190000 954.000000 0.577350 0.577350 0.577350
18.35569954 11.05099964 0.05390000 973.000000 0.577350 0.577350 0.577350
18.35689926 11.05010033 0.05460000 965.000000 0.577350 0.577350 0.577350
18.35899925 11.04979992 0.05260000 919.000000 0.577350 0.577350 0.577350
18.36090088 11.04930019 0.05530000 911.000000 0.577350 0.577350 0.577350
18.36520004 11.05039978 0.05260000 866.000000 0.577350 0.577350 0.577350
18.36940002 11.05130005 0.05330000 851.000000 0.577350 0.577350 0.577350
18.37389946 11.05239964 0.05330000 830.000000 0.577350 0.577350 0.577350
18.37800026 11.05340004 0.05330000 836.000000 0.577350 0.577350 0.577350
18.38159943 11.05389977 0.05330000 834.000000 0.577350 0.577350 0.577350
18.38479996 11.05430031 0.05330000 848.000000 0.577350 0.577350 0.577350
18.38629913 11.05370045 0.05330000 856.000000 0.577350 0.577350 0.577350
18.38780022 11.05300045 0.05330000 865.000000 0.577350 0.577350 0.577350
18.38870049 11.05200005 0.05400000 881.000000 0.577350 0.577350 0.577350
18.38969994 11.05090046 0.05400000 895.000000 0.577350 0.577350 0.577350
18.39030075 11.04990005 0.05470000 914.000000 0.577350 0.577350 0.577350
18.39080048 11.04889965 0.05400000 922.000000 0.577350 0.577350 0.577350
18.39159966 11.04800034 0.05400000 933.000000 0.577350 0.577350 0.577350
18.39220047 11.04679966 0.05400000 952.000000 0.577350 0.577350 0.577350
18.39319992 11.04580021 0.05330000 952.000000 0.577350 0.577350 0.577350
18.39380074 11.04459953 0.05400000 1001.000000 0.577350 0.577350 0.577350
18.39469910 11.04360008 0.05470000 1020.000000 0.577350 0.577350 0.577350
18.39520073 11.04230022 0.05270000 977.000000 0.577350 0.577350 0.577350
18.39590073 11.04119968 0.05470000 1039.000000 0.577350 0.577350 0.577350
18.34219933 11.07129955 0.05330000 981.000000 0.577350 0.577350 0.577350
18.34269905 11.06999969 0.05260000 956.000000 0.577350 0.577350 0.577350
18.34350014 11.06910038 0.05130000 902.000000 0.577350 0.577350 0.577350
18.34379959 11.06779957 0.05130000 845.000000 0.577350 0.577350 0.577350
18.34469986 11.06700039 0.05130000 837.000000 0.577350 0.577350 0.577350
18.34539986 11.06620026 0.05190000 818.000000 0.577350 0.577350 0.577350
18.34600067 11.06490040 0.05190000 834.000000 0.577350 0.577350 0.577350
18.34720039 11.06410027 0.05190000 856.000000 0.577350 0.577350 0.577350
18.34779930 11.06280041 0.05190000 875.000000 0.577350 0.577350 0.577350
18.34840012 11.06169987 0.05190000 900.000000 0.577350 0.577350 0.577350
18.34919930 11.06060028 0.05190000 918.000000 0.577350 0.577350 0.577350
18.34980011 11.05930042 0.05190000 927.000000 0.577350 0.577350 0.577350
18.35090065 11.05850029 0.05190000 935.000000 0.577350 0.577350 0.577350
18.35120010 11.05710030 0.05260000 951.000000 0.577350 0.577350 0.577350
18.35210037 11.05599976 0.05260000 946.000000 0.577350 0.577350 0.577350
18.35280037 11.05490017 0.05260000 957.000000 0.577350 0.577350 0.577350
18.35359955 11.05379963 0.05060000 924.000000 0.577350 0.577350 0.577350
18.35420036 11.05270004 0.05060000 938.000000 0.577350 0.577350 0.577350
18.35479927 11.05169964 0.05060000 930.000000 0.577350 0.577350 0.577350
18.35569954 11.05099964 0.05260000 952.000000 0.577350 0.577350 0.577350
18.35700035 11.05020046 0.05330000 949.000000 0.577350 0.577350 0.577350
18.35930061 11.04990005 0.05130000 895.000000 0.577350 0.577350 0.577350
18.36149979 11.04969978 0.05330000 893.000000 0.577350 0.577350 0.577350
18.36580086 11.05070019 0.05130000 853.000000 0.577350 0.577350 0.577350
18.37010002 11.05169964 0.05130000 843.000000 0.577350 0.577350 0.577350
18.37459946 11.05280018 0.05130000 825.000000 0.577350 0.577350 0.577350
18.37859917 11.05379963 0.05200000 825.000000 0.577350 0.577350 0.577350
18.38199997 11.05420017 0.05200000 820.000000 0.577350 0.577350 0.577350
18.38509941 11.05449963 0.05200000 826.000000 0.577350 0.577350 0.577350
18.38649940 11.05379963 0.05200000 837.000000 0.577350 0.577350 0.577350
18.38750076 11.05280018 0.05200000 840.000000 0.577350 0.577350 0.577350
18.38859940 11.05200005 0.05270000 857.000000 0.577350 0.577350 0.577350
18.38979912 11.05099964 0.05270000 881.000000 0.577350 0.577350 0.577350
18.39039993 11.05000019 0.05270000 892.000000 0.577350 0.577350 0.577350
18.39089966 11.04889965 0.05270000 903.000000 0.577350 0.577350 0.577350
18.39159966 11.04800034 0.05200000 914.000000 0.577350 0.577350 0.577350
18.39229965 11.04679966 0.05270000 925.000000 0.577350 0.577350 0.577350
18.39349937 11.04599953 0.05130000 909.000000 0.577350 0.577350 0.577350
18.39410019 11.04479980 0.05270000 958.000000 0.577350 0.577350 0.577350
18.39469910 11.04360008 0.05330000 971.000000 0.577350 0.577350 0.577350
18.39520073 11.04230022 0.05130000 922.000000 0.577350 0.577350 0.577350
18.39579964 11.04109955 0.05270000 996.000000 0.577350 0.577350 0.577350
18.34219933 11.07129955 0.05130000 973.000000 0.577350 0.577350 0.577350
18.34289932 11.07009983 0.05130000 943.000000 0.577350 0.577350 0.577350
18.34339905 11.06900024 0.04990000 883.000000 0.577350 0.577350 0.577350
18.34379959 11.06770039 0.04990000 826.000000 0.577350 0.577350 0.577350
18.34469986 11.06700039 0.04990000 815.000000 0.577350 0.577350 0.577350
18.34530067 11.06610012 0.04990000 796.000000 0.577350 0.577350 0.577350
18.34600067 11.06490040 0.04990000 799.000000 0.577350 0.577350 0.577350
18.34709930 11.06400013 0.04990000 821.000000 0.577350 0.577350 0.577350
18.34779930 11.06280041 0.05060000 851.000000 0.577350 0.577350 0.577350
18.34830093 11.06169987 0.05060000 881.000000 0.577350 0.577350 0.577350
18.34930038 11.06070042 0.05060000 910.000000 0.577350 0.577350 0.577350
18.34970093 11.05920029 0.05060000 918.000000 0.577350 0.577350 0.577350
18.35099983 11.05860043 0.05060000 933.000000 0.577350 0.577350 0.577350
18.35120010 11.05710030 0.05060000 943.000000 0.577350 0.577350 0.577350
18.35210037 11.05599976 0.05060000 943.000000 0.577350 0.577350 0.577350
18.35280037 11.05490017 0.05130000 946.000000 0.577350 0.577350 0.577350
18.35359955 11.05389977 0.04920000 908.000000 0.577350 0.577350 0.577350
18.35420036 11.05270004 0.04920000 919.000000 0.577350 0.577350 0.577350
18.35479927 11.05160046 0.04920000 905.000000 0.577350 0.577350 0.577350
18.35580063 11.05099964 0.05060000 922.000000 0.577350 0.577350 0.577350
18.35709953 11.05020046 0.05130000 927.000000 0.577350 0.577350 0.577350
18.35939980 11.05000019 0.04990000 879.000000 0.577350 0.577350 0.577350
18.36199951 11.05000019 0.05130000 877.000000 0.577350 0.577350 0.577350
18.36650085 11.05109978 0.04930000 839.000000 0.577350 0.577350 0.577350
18.37080002 11.05210018 0.04990000 832.000000 0.577350 0.577350 0.577350
18.37529945 11.05329990 0.04990000 819.000000 0.577350 0.577350 0.577350
18.37929916 11.05420017 0.05000000 809.000000 0.577350 0.577350 0.577350
18.38240051 11.05440044 0.05000000 812.000000 0.577350 0.577350 0.577350
18.38540077 11.05459976 0.05000000 815.000000 0.577350 0.577350 0.577350
18.38660049 11.05389977 0.05060000 826.000000 0.577350 0.577350 0.577350
18.38769913 11.05300045 0.05060000 829.000000 0.577350 0.577350 0.577350
18.38870049 11.05200005 0.05060000 843.000000 0.577350 0.577350 0.577350
18.38979912 11.05099964 0.05060000 870.000000 0.577350 0.577350 0.577350
18.39049911 11.05000019 0.05130000 881.000000 0.577350 0.577350 0.577350
18.39109993 11.04899979 0.05130000 884.000000 0.577350 0.577350 0.577350
18.39170074 11.04810047 0.05060000 895.000000 0.577350 0.577350 0.577350
18.39249992 11.04689980 0.05070000 898.000000 0.577350 0.577350 0.577350
18.39360046 11.04599953 0.04930000 871.000000 0.577350 0.577350 0.577350
18.39430046 11.04489994 0.05130000 909.000000 0.577350 0.577350 0.577350
18.39489937 11.04370022 0.05130000 909.000000 0.577350 0.577350 0.577350
18.39529991 11.04240036 0.04930000 881.000000 0.577350 0.577350 0.577350
18.39590073 11.04119968 0.05130000 955.000000 0.577350 0.577350 0.577350
18.34219933 11.07129955 0.04990000 973.000000 0.577350 0.577350 0.577350
18.34289932 11.07019997 0.04920000 929.000000 0.577350 0.577350 0.577350
18.34339905 11.06900024 0.04790000 872.000000 0.577350 0.577350 0.577350
18.34379959 11.06770039 0.04790000 818.000000 0.577350 0.577350 0.577350
18.34480095 11.06700039 0.04790000 805.000000 0.577350 0.577350 0.577350
18.34530067 11.06610012 0.04860000 786.000000 0.577350 0.577350 0.577350
18.34600067 11.06490040 0.04860000 775.000000 0.577350 0.577350 0.577350
18.34690094 11.06389999 0.04860000 799.000000 0.577350 0.577350 0.577350
18.34749985 11.06270027 0.04860000 829.000000 0.577350 0.577350 0.577350
18.34830093 11.06159973 0.04860000 862.000000 0.577350 0.577350 0.577350
18.34919930 11.06060028 0.04860000 891.000000 0.577350 0.577350 0.577350
18.34970093 11.05920029 0.04860000 902.000000 0.577350 0.577350 0.577350
18.35099983 11.05860043 0.04860000 922.000000 0.577350 0.577350 0.577350
18.35140038 11.05720043 0.04920000 932.000000 0.577350 0.577350 0.577350
18.35210037 11.05599976 0.04920000 930.000000 0.577350 0.577350 0.577350
18.35280037 11.05490017 0.04920000 924.000000 0.577350 0.577350 0.577350
18.35359955 11.05379963 0.04720000 892.000000 0.577350 0.577350 0.577350
18.35420036 11.05270004 0.04790000 900.000000 0.577350 0.577350 0.577350
18.35479927 11.05160046 0.04720000 892.000000 0.577350 0.577350 0.577350
18.35569954 11.05090046 0.04920000 897.000000 0.577350 0.577350 0.577350
18.35720062 11.05029964 0.04990000 908.000000 0.577350 0.577350 0.577350
18.35969925 11.05020046 0.04790000 876.000000 0.577350 0.577350 0.577350
18.36249924 11.05029964 0.04990000 863.000000 0.577350 0.577350 0.577350
18.36739922 11.05169964 0.04790000 834.000000 0.577350 0.577350 0.577350
18.37179947 11.05280018 0.04790000 819.000000 0.577350 0.577350 0.577350
18.37610054 11.05379963 0.04790000 820.000000 0.577350 0.577350 0.577350
18.37989998 11.05459976 0.04860000 807.000000 0.577350 0.577350 0.577350
18.38279915 11.05469990 0.04860000 820.000000 0.577350 0.577350 0.577350
18.38559914 11.05469990 0.04860000 829.000000 0.577350 0.577350 0.577350
18.38680077 11.05399990 0.04860000 832.000000 0.577350 0.577350 0.577350
18.38789940 11.05309963 0.04860000 840.000000 0.577350 0.577350 0.577350
18.38879967 11.05210018 0.04930000 854.000000 0.577350 0.577350 0.577350
18.38990021 11.05109978 0.04930000 873.000000 0.577350 0.577350 0.577350
18.39039993 11.05000019 0.04930000 890.000000 0.577350 0.577350 0.577350
18.39119911 11.04909992 0.04930000 881.000000 0.577350 0.577350 0.577350
18.39179993 11.04810047 0.04860000 890.000000 0.577350 0.577350 0.577350
18.39249992 11.04699993 0.04930000 881.000000 0.577350 0.577350 0.577350
18.39349937 11.04599953 0.04800000 852.000000 0.577350 0.577350 0.577350
18.39430046 11.04489994 0.04930000 865.000000 0.577350 0.577350 0.577350
18.39500046 11.04370022 0.05000000 863.000000 0.577350 0.577350 0.577350
18.39529991 11.04240036 0.04800000 857.000000 0.577350 0.577350 0.577350
18.39599991 11.04119968 0.05000000 917.000000 0.577350 0.577350 0.577350
18.34219933 11.07129955 0.04790000 981.000000 0.577350 0.577350 0.577350
18.34289932 11.07019997 0.04790000 924.000000 0.577350 0.577350 0.577350
18.34339905 11.06900024 0.04650000 872.000000 0.577350 0.577350 0.577350
18.34390068 11.06779957 0.04650000 823.000000 0.577350 0.577350 0.577350
18.34460068 11.06690025 0.04650000 805.000000 0.577350 0.577350 0.577350
18.34530067 11.06610012 0.04650000 786.000000 0.577350 0.577350 0.577350
18.34589958 11.06480026 0.04650000 775.000000 0.577350 0.577350 0.577350
18.34679985 11.06379986 0.04650000 799.000000 0.577350 0.577350 0.577350
18.34729958 11.06260014 0.04720000 821.000000 0.577350 0.577350 0.577350
18.34810066 11.06149960 0.04720000 851.000000 0.577350 0.577350 0.577350
18.34919930 11.06060028 0.04720000 881.000000 0.577350 0.577350 0.577350
18.34970093 11.05920029 0.04720000 889.000000 0.577350 0.577350 0.577350
18.35090065 11.05850029 0.04720000 903.000000 0.577350 0.577350 0.577350
18.35129929 11.05720043 0.04720000 919.000000 0.577350 0.577350 0.577350
18.35190010 11.05589962 0.04720000 908.000000 0.577350 0.577350 0.577350
18.35289955 11.05490017 0.04790000 903.000000 0.577350 0.577350 0.577350
18.35350037 11.05379963 0.04590000 878.000000 0.577350 0.577350 0.577350
18.35420036 11.05270004 0.04590000 894.000000 0.577350 0.577350 0.577350
18.35490036 11.05169964 0.04590000 892.000000 0.577350 0.577350 0.577350
18.35549927 11.05080032 0.04720000 892.000000 0.577350 0.577350 0.577350
18.35729980 11.05029964 0.04790000 897.000000 0.577350 0.577350 0.577350
18.36020088 11.05049992 0.04650000 884.000000 0.577350 0.577350 0.577350
18.36300087 11.05060005 0.04860000 858.000000 0.577350 0.577350 0.577350
18.36840057 11.05230045 0.04590000 842.000000 0.577350 0.577350 0.577350
18.37280083 11.05340004 0.04660000 822.000000 0.577350 0.577350 0.577350
18.37700081 11.05430031 0.04660000 831.000000 0.577350 0.577350 0.577350
18.38039970 11.05480003 0.04660000 826.000000 0.577350 0.577350 0.577350
18.38360023 11.05510044 0.04730000 840.000000 0.577350 0.577350 0.577350
18.38579941 11.05490017 0.04660000 862.000000 0.577350 0.577350 0.577350
18.38699913 11.05410004 0.04730000 862.000000 0.577350 0.577350 0.577350
18.38800049 11.05319977 0.04730000 873.000000 0.577350 0.577350 0.577350
18.38890076 11.05210018 0.04730000 881.000000 0.577350 0.577350 0.577350
18.38999939 11.05109978 0.04730000 903.000000 0.577350 0.577350 0.577350
18.39039993 11.05000019 0.04800000 911.000000 0.577350 0.577350 0.577350
18.39139938 11.04920006 0.04800000 898.000000 0.577350 0.577350 0.577350
18.39189911 11.04819965 0.04730000 900.000000 0.577350 0.577350 0.577350
18.39249992 11.04699993 0.04730000 887.000000 0.577350 0.577350 0.577350
18.39349937 11.04599953 0.04660000 857.000000 0.577350 0.577350 0.577350
18.39419937 11.04479980 0.04800000 841.000000 0.577350 0.577350 0.577350
18.39509964 11.04380035 0.04800000 838.000000 0.577350 0.577350 0.577350
18.39529991 11.04240036 0.04590000 854.000000 0.577350 0.577350 0.577350
18.39599991 11.04119968 0.04800000 887.000000 0.577350 0.577350 0.577350
18.34230042 11.07139969 0.04650000 986.000000 0.577350 0.577350 0.577350
18.34300041 11.07030010 0.04590000 921.000000 0.577350 0.577350 0.577350
18.34350014 11.06910038 0.04450000 878.000000 0.577350 0.577350 0.577350
18.34410095 11.06789970 0.04450000 837.000000 0.577350 0.577350 0.577350
18.34440041 11.06680012 0.04450000 818.000000 0.577350 0.577350 0.577350
18.34519958 11.06610012 0.04520000 810.000000 0.577350 0.577350 0.577350
18.34569931 11.06470013 0.04520000 802.000000 0.577350 0.577350 0.577350
18.34670067 11.06379986 0.04520000 821.000000 0.577350 0.577350 0.577350
18.34740067 11.06260014 0.04520000 837.000000 0.577350 0.577350 0.577350
18.34810066 11.06149960 0.04520000 859.000000 0.577350 0.577350 0.577350
18.34930038 11.06070042 0.04520000 886.000000 0.577350 0.577350 0.577350
18.34970093 11.05920029 0.04520000 889.000000 0.577350 0.577350 0.577350
18.35059929 11.05830002 0.04520000 897.000000 0.577350 0.577350 0.577350
18.35120010 11.05710030 0.04590000 903.000000 0.577350 0.577350 0.577350
18.35190010 11.05589962 0.04590000 889.000000 0.577350 0.577350 0.577350
18.35280037 11.05490017 0.04590000 886.000000 0.577350 0.577350 0.577350
18.35350037 11.05379963 0.04450000 867.000000 0.577350 0.577350 0.577350
18.35420036 11.05270004 0.04380000 886.000000 0.577350 0.577350 0.577350
18.35519981 11.05189991 0.04380000 889.000000 0.577350 0.577350 0.577350
18.35560036 11.05090046 0.04590000 895.000000 0.577350 0.577350 0.577350
18.35759926 11.05049992 0.04650000 900.000000 0.577350 0.577350 0.577350
18.36090088 11.05090046 0.04450000 895.000000 0.577350 0.577350 0.577350
18.36370087 11.05099964 0.04660000 866.000000 0.577350 0.577350 0.577350
18.36919975 11.05280018 0.04450000 856.000000 0.577350 0.577350 0.577350
18.37380028 11.05399990 0.04460000 841.000000 0.577350 0.577350 0.577350
18.37789917 11.05490017 0.04460000 855.000000 0.577350 0.577350 0.577350
18.38109970 11.05529976 0.04520000 861.000000 0.577350 0.577350 0.577350
18.38419914 11.05550003 0.04530000 878.000000 0.577350 0.577350 0.577350
18.38610077 11.05510044 0.04530000 908.000000 0.577350 0.577350 0.577350
18.38719940 11.05420017 0.04530000 908.000000 0.577350 0.577350 0.577350
18.38809967 11.05319977 0.04530000 919.000000 0.577350 0.577350 0.577350
18.38890076 11.05210018 0.04590000 925.000000 0.577350 0.577350 0.577350
18.38979912 11.05099964 0.04530000 947.000000 0.577350 0.577350 0.577350
18.39039993 11.05000019 0.04590000 947.000000 0.577350 0.577350 0.577350
18.39139938 11.04920006 0.04590000 933.000000 0.577350 0.577350 0.577350
18.39189911 11.04819965 0.04530000 928.000000 0.577350 0.577350 0.577350
18.39229965 11.04679966 0.04590000 903.000000 0.577350 0.577350 0.577350
18.39349937 11.04599953 0.04460000 879.000000 0.577350 0.577350 0.577350
18.39389992 11.04459953 0.04590000 841.000000 0.577350 0.577350 0.577350
18.39509964 11.04380035 0.04660000 830.000000 0.577350 0.577350 0.577350
18.39529991 11.04240036 0.04460000 865.000000 0.577350 0.577350 0.577350
18.39599991 11.04119968 0.04660000 879.000000 0.577350 0.577350 0.577350
18.34239960 11.07139969 0.04450000 981.000000 0.577350 0.577350 0.577350
18.34309959 11.07030010 0.04450000 913.000000 0.577350 0.577350 0.577350
18.34370041 11.06919956 0.04320000 881.000000 0.577350 0.577350 0.577350
18.34449959 11.06820011 0.04320000 851.000000 0.577350 0.577350 0.577350
18.34440041 11.06680012 0.04320000 840.000000 0.577350 0.577350 0.577350
18.34530067 11.06610012 0.04320000 848.000000 0.577350 0.577350 0.577350
18.34569931 11.06470013 0.04320000 840.000000 0.577350 0.577350 0.577350
18.34670067 11.06379986 0.04320000 856.000000 0.577350 0.577350 0.577350
18.34760094 11.06270027 0.04380000 872.000000 0.577350 0.577350 0.577350
18.34830093 11.06159973 0.04380000 886.000000 0.577350 0.577350 0.577350
18.34930038 11.06070042 0.04380000 908.000000 0.577350 0.577350 0.577350
18.34980011 11.05930042 0.04380000 902.000000 0.577350 0.577350 0.577350
18.35040092 11.05819988 0.04380000 908.000000 0.577350 0.577350 0.577350
18.35140038 11.05720043 0.04380000 894.000000 0.577350 0.577350 0.577350
18.35190010 11.05589962 0.04380000 878.000000 0.577350 0.577350 0.577350
18.35280037 11.05490017 0.04450000 873.000000 0.577350 0.577350 0.577350
18.35350037 11.05379963 0.04250000 856.000000 0.577350 0.577350 0.577350
18.35429955 11.05280018 0.04250000 870.000000 0.577350 0.577350 0.577350
18.35540009 11.05200005 0.04250000 881.000000 0.577350 0.577350 0.577350
18.35589981 11.05109978 0.04380000 892.000000 0.577350 0.577350 0.577350
18.35790062 11.05070019 0.04450000 909.000000 0.577350 0.577350 0.577350
18.36160088 11.05130005 0.04320000 896.000000 0.577350 0.577350 0.577350
18.36450005 11.05150032 0.04520000 874.000000 0.577350 0.577350 0.577350
18.37010002 11.05329990 0.04250000 867.000000 0.577350 0.577350 0.577350
18.37459946 11.05440044 0.04320000 863.000000 0.577350 0.577350 0.577350
