18.30229950 11.14159966 0.14550000 891.000000 0.577350 0.577350 0.577350
18.30380058 11.14089966 0.14610000 875.000000 0.577350 0.577350 0.577350
18.30459976 11.13990021 0.14550000 867.000000 0.577350 0.577350 0.577350
18.30579948 11.13899994 0.14550000 854.000000 0.577350 0.577350 0.577350
18.30739975 11.13840008 0.14620000 851.000000 0.577350 0.577350 0.577350
18.30809975 11.13720036 0.14550000 856.000000 0.577350 0.577350 0.577350
18.31049919 11.13710022 0.14620000 862.000000 0.577350 0.577350 0.577350
18.31170082 11.13630009 0.14620000 873.000000 0.577350 0.577350 0.577350
18.31290054 11.13549995 0.14620000 871.000000 0.577350 0.577350 0.577350
18.31369972 11.13440037 0.14620000 865.000000 0.577350 0.577350 0.577350
18.31570053 11.13399982 0.14690000 830.000000 0.577350 0.577350 0.577350
18.31629944 11.13300037 0.14690000 825.000000 0.577350 0.577350 0.577350
18.31789970 11.13259983 0.14690000 811.000000 0.577350 0.577350 0.577350
18.31859970 11.13169956 0.14690000 803.000000 0.577350 0.577350 0.577350
18.31979942 11.13080025 0.14690000 795.000000 0.577350 0.577350 0.577350
18.32049942 11.12959957 0.14620000 806.000000 0.577350 0.577350 0.577350
18.31940079 11.12740040 0.14480001 819.000000 0.577350 0.577350 0.577350
18.32539940 11.12940025 0.14690000 818.000000 0.577350 0.577350 0.577350
18.32719994 11.12899971 0.14690000 837.000000 0.577350 0.577350 0.577350
18.32410049 11.12549973 0.14550000 831.000000 0.577350 0.577350 0.577350
18.32749939 11.12600040 0.14620000 834.000000 0.577350 0.577350 0.577350
18.32679939 11.12399960 0.14550000 842.000000 0.577350 0.577350 0.577350
18.32850075 11.12349987 0.14560001 853.000000 0.577350 0.577350 0.577350
18.32939911 11.12250042 0.14560001 864.000000 0.577350 0.577350 0.577350
18.33219910 11.12290001 0.14560001 886.000000 0.577350 0.577350 0.577350
18.33200073 11.12160015 0.14560001 881.000000 0.577350 0.577350 0.577350
18.33379936 11.12110043 0.14630000 884.000000 0.577350 0.577350 0.577350
18.33550072 11.12059975 0.14630000 868.000000 0.577350 0.577350 0.577350
18.33709908 11.12010002 0.14630000 868.000000 0.577350 0.577350 0.577350
18.33749962 11.11870003 0.14560001 868.000000 0.577350 0.577350 0.577350
18.33979988 11.11870003 0.14630000 879.000000 0.577350 0.577350 0.577350
18.34090042 11.11800003 0.14630000 896.000000 0.577350 0.577350 0.577350
18.34210014 11.11730003 0.14630000 907.000000 0.577350 0.577350 0.577350
18.34390068 11.11680031 0.14700000 910.000000 0.577350 0.577350 0.577350
18.34440041 11.11559963 0.14630000 915.000000 0.577350 0.577350 0.577350
18.34550095 11.11470032 0.14630000 923.000000 0.577350 0.577350 0.577350
18.34700012 11.11429977 0.14700000 935.000000 0.577350 0.577350 0.577350
18.34810066 11.11380005 0.14700000 945.000000 0.577350 0.577350 0.577350
18.34869957 11.11250019 0.14700000 945.000000 0.577350 0.577350 0.577350
18.34939957 11.11139965 0.14700000 937.000000 0.577350 0.577350 0.577350
18.34830093 11.10910034 0.14560001 926.000000 0.577350 0.577350 0.577350
18.35140038 11.10949993 0.14700000 946.000000 0.577350 0.577350 0.577350
18.35269928 11.10869980 0.14700000 946.000000 0.577350 0.577350 0.577350
18.35350037 11.10789967 0.14700000 949.000000 0.577350 0.577350 0.577350
18.35280037 11.10620022 0.14560001 948.000000 0.577350 0.577350 0.577350
18.35370064 11.10529995 0.14560001 962.000000 0.577350 0.577350 0.577350
18.35479927 11.10429955 0.14560001 959.000000 0.577350 0.577350 0.577350
18.35619926 11.10359955 0.14560001 959.000000 0.577350 0.577350 0.577350
18.35700035 11.10289955 0.14630000 951.000000 0.577350 0.577350 0.577350
18.35770035 11.10200024 0.14630000 949.000000 0.577350 0.577350 0.577350
18.35869980 11.10109997 0.14630000 941.000000 0.577350 0.577350 0.577350
18.35899925 11.09959984 0.14630000 929.000000 0.577350 0.577350 0.577350
18.35950089 11.09840012 0.14630000 932.000000 0.577350 0.577350 0.577350
18.36059952 11.09749985 0.14630000 919.000000 0.577350 0.577350 0.577350
18.23049927 11.25559998 0.14480001 918.000000 0.577350 0.577350 0.577350
18.23119926 11.25440025 0.14340000 905.000000 0.577350 0.577350 0.577350
18.23159981 11.25310040 0.14550000 913.000000 0.577350 0.577350 0.577350
18.23240089 11.25209999 0.14550000 902.000000 0.577350 0.577350 0.577350
18.23310089 11.25080013 0.14550000 910.000000 0.577350 0.577350 0.577350
18.23390007 11.24979973 0.14410000 883.000000 0.577350 0.577350 0.577350
18.23460007 11.24860001 0.14410000 875.000000 0.577350 0.577350 0.577350
18.23500061 11.24730015 0.14340000 880.000000 0.577350 0.577350 0.577350
18.23579979 11.24629974 0.14410000 891.000000 0.577350 0.577350 0.577350
18.23649979 11.24510002 0.14410000 902.000000 0.577350 0.577350 0.577350
18.23760033 11.24409962 0.14410000 910.000000 0.577350 0.577350 0.577350
18.23810005 11.24289989 0.14480001 921.000000 0.577350 0.577350 0.577350
18.23880005 11.24170017 0.14410000 927.000000 0.577350 0.577350 0.577350
18.23940086 11.24050045 0.14410000 913.000000 0.577350 0.577350 0.577350
18.24040031 11.23950005 0.14410000 922.000000 0.577350 0.577350 0.577350
18.24099922 11.23840046 0.14410000 913.000000 0.577350 0.577350 0.577350
18.24139977 11.23700047 0.14410000 911.000000 0.577350 0.577350 0.577350
18.24239922 11.23610020 0.14480001 919.000000 0.577350 0.577350 0.577350
18.24290085 11.23480034 0.14410000 919.000000 0.577350 0.577350 0.577350
18.24370003 11.23369980 0.14410000 943.000000 0.577350 0.577350 0.577350
18.24430084 11.23250008 0.14410000 946.000000 0.577350 0.577350 0.577350
18.24469948 11.23099995 0.14410000 968.000000 0.577350 0.577350 0.577350
18.24589920 11.23029995 0.14410000 987.000000 0.577350 0.577350 0.577350
18.24609947 11.22869968 0.14480001 973.000000 0.577350 0.577350 0.577350
18.24720001 11.22760010 0.14550000 976.000000 0.577350 0.577350 0.577350
18.24810028 11.22630024 0.14480001 965.000000 0.577350 0.577350 0.577350
18.24850082 11.22480011 0.14480001 954.000000 0.577350 0.577350 0.577350
18.24900055 11.22369957 0.14480001 943.000000 0.577350 0.577350 0.577350
18.25009918 11.22270012 0.14480001 930.000000 0.577350 0.577350 0.577350
18.25060081 11.22140026 0.14550000 919.000000 0.577350 0.577350 0.577350
18.25130081 11.22029972 0.14480001 908.000000 0.577350 0.577350 0.577350
18.25219917 11.21920013 0.14550000 914.000000 0.577350 0.577350 0.577350
18.25270081 11.21800041 0.14550000 944.000000 0.577350 0.577350 0.577350
18.25340080 11.21679974 0.14410000 955.000000 0.577350 0.577350 0.577350
18.25429916 11.21580029 0.14340000 993.000000 0.577350 0.577350 0.577350
18.25519943 11.21479988 0.14550000 1014.000000 0.577350 0.577350 0.577350
18.25580025 11.21350002 0.14550000 1028.000000 0.577350 0.577350 0.577350
18.25639915 11.21240044 0.14410000 1020.000000 0.577350 0.577350 0.577350
18.25679970 11.21100044 0.14550000 990.000000 0.577350 0.577350 0.577350
18.25769997 11.20989990 0.14550000 957.000000 0.577350 0.577350 0.577350
18.25860023 11.20890045 0.14340000 922.000000 0.577350 0.577350 0.577350
18.25900078 11.20740032 0.14410000 906.000000 0.577350 0.577350 0.577350
18.25989914 11.20619965 0.14340000 909.000000 0.577350 0.577350 0.577350
18.26099968 11.20510006 0.14410000 914.000000 0.577350 0.577350 0.577350
18.26149940 11.20380020 0.14410000 939.000000 0.577350 0.577350 0.577350
18.26250076 11.20289993 0.14410000 963.000000 0.577350 0.577350 0.577350
18.26370049 11.20189953 0.14480001 988.000000 0.577350 0.577350 0.577350
18.26350021 11.20030022 0.14410000 979.000000 0.577350 0.577350 0.577350
18.26460075 11.19939995 0.14410000 966.000000 0.577350 0.577350 0.577350
18.26560020 11.19839954 0.14410000 950.000000 0.577350 0.577350 0.577350
18.26600075 11.19709969 0.14410000 944.000000 0.577350 0.577350 0.577350
18.26689911 11.19610023 0.14410000 933.000000 0.577350 0.577350 0.577350
18.26770020 11.19499969 0.14480001 920.000000 0.577350 0.577350 0.577350
18.26840019 11.19359970 0.14480001 915.000000 0.577350 0.577350 0.577350
18.26930046 11.19239998 0.14480001 926.000000 0.577350 0.577350 0.577350
18.27020073 11.19110012 0.14480001 923.000000 0.577350 0.577350 0.577350
18.27070045 11.18980026 0.14410000 909.000000 0.577350 0.577350 0.577350
18.27179909 11.18900013 0.14480001 904.000000 0.577350 0.577350 0.577350
18.27190018 11.18750000 0.14480001 912.000000 0.577350 0.577350 0.577350
18.27269936 11.18640041 0.14480001 926.000000 0.577350 0.577350 0.577350
18.27330017 11.18519974 0.14480001 907.000000 0.577350 0.577350 0.577350
18.27370071 11.18369961 0.14480001 928.000000 0.577350 0.577350 0.577350
18.27479935 11.18290043 0.14480001 926.000000 0.577350 0.577350 0.577350
18.27529907 11.18159962 0.14550000 936.000000 0.577350 0.577350 0.577350
18.27580070 11.18029976 0.14480001 953.000000 0.577350 0.577350 0.577350
18.27680016 11.17930031 0.14340000 969.000000 0.577350 0.577350 0.577350
18.27729988 11.17790031 0.14340000 974.000000 0.577350 0.577350 0.577350
18.27820015 11.17650032 0.14410000 944.000000 0.577350 0.577350 0.577350
18.27910042 11.17539978 0.14550000 917.000000 0.577350 0.577350 0.577350
18.27960014 11.17409992 0.14410000 934.000000 0.577350 0.577350 0.577350
18.28030014 11.17300034 0.14410000 915.000000 0.577350 0.577350 0.577350
18.28120041 11.17189980 0.14410000 939.000000 0.577350 0.577350 0.577350
18.28210068 11.17090034 0.14610000 948.000000 0.577350 0.577350 0.577350
18.28210068 11.16940022 0.14340000 953.000000 0.577350 0.577350 0.577350
18.28310013 11.16829967 0.14410000 937.000000 0.577350 0.577350 0.577350
18.28359985 11.16709995 0.14410000 912.000000 0.577350 0.577350 0.577350
18.28490067 11.16629982 0.14410000 901.000000 0.577350 0.577350 0.577350
18.28499985 11.16479969 0.14480001 899.000000 0.577350 0.577350 0.577350
18.28590012 11.16380024 0.14480001 904.000000 0.577350 0.577350 0.577350
18.28689957 11.16279984 0.14410000 904.000000 0.577350 0.577350 0.577350
18.28750038 11.16160011 0.14410000 901.000000 0.577350 0.577350 0.577350
18.28849983 11.16059971 0.14480001 901.000000 0.577350 0.577350 0.577350
18.28930092 11.15950012 0.14480001 893.000000 0.577350 0.577350 0.577350
18.28980064 11.15820026 0.14480001 882.000000 0.577350 0.577350 0.577350
18.29080009 11.15719986 0.14480001 872.000000 0.577350 0.577350 0.577350
18.29179955 11.15610027 0.14480001 869.000000 0.577350 0.577350 0.577350
18.29229927 11.15480042 0.14480001 847.000000 0.577350 0.577350 0.577350
18.29299927 11.15349960 0.14480001 869.000000 0.577350 0.577350 0.577350
18.29369926 11.15219975 0.14550000 893.000000 0.577350 0.577350 0.577350
18.29430008 11.15089989 0.14480001 915.000000 0.577350 0.577350 0.577350
18.29520035 11.14990044 0.14550000 926.000000 0.577350 0.577350 0.577350
18.29610062 11.14879990 0.14480001 942.000000 0.577350 0.577350 0.577350
18.29640007 11.14739990 0.14340000 964.000000 0.577350 0.577350 0.577350
18.29829979 11.14710045 0.14550000 999.000000 0.577350 0.577350 0.577350
18.29850006 11.14550018 0.14410000 983.000000 0.577350 0.577350 0.577350
18.29920006 11.14439964 0.14340000 967.000000 0.577350 0.577350 0.577350
18.30089951 11.14400005 0.14550000 954.000000 0.577350 0.577350 0.577350
18.30050087 11.14210033 0.14410000 929.000000 0.577350 0.577350 0.577350
18.30120087 11.14099979 0.14410000 905.000000 0.577350 0.577350 0.577350
18.30229950 11.14000034 0.14410000 894.000000 0.577350 0.577350 0.577350
18.30319977 11.13899994 0.14410000 894.000000 0.577350 0.577350 0.577350
18.30410004 11.13790035 0.14410000 883.000000 0.577350 0.577350 0.577350
18.30540085 11.13720036 0.14410000 883.000000 0.577350 0.577350 0.577350
18.30599976 11.13589954 0.14410000 894.000000 0.577350 0.577350 0.577350
18.30789948 11.13549995 0.14480001 889.000000 0.577350 0.577350 0.577350
18.30879974 11.13449955 0.14480001 908.000000 0.577350 0.577350 0.577350
18.30970001 11.13350010 0.14480001 900.000000 0.577350 0.577350 0.577350
18.31049919 11.13249969 0.14480001 900.000000 0.577350 0.577350 0.577350
18.31229973 11.13199997 0.14480001 870.000000 0.577350 0.577350 0.577350
18.31299973 11.13099957 0.14480001 859.000000 0.577350 0.577350 0.577350
18.31419945 11.13039970 0.14480001 846.000000 0.577350 0.577350 0.577350
18.31509972 11.12950039 0.14480001 838.000000 0.577350 0.577350 0.577350
18.31609917 11.12849998 0.14480001 819.000000 0.577350 0.577350 0.577350
18.31669998 11.12730026 0.14480001 822.000000 0.577350 0.577350 0.577350
18.31599998 11.12539959 0.14350000 832.000000 0.577350 0.577350 0.577350
18.32089996 11.12679958 0.14550000 817.000000 0.577350 0.577350 0.577350
18.32270050 11.12629986 0.14550000 823.000000 0.577350 0.577350 0.577350
18.32010078 11.12310028 0.14350000 833.000000 0.577350 0.577350 0.577350
18.32309914 11.12339973 0.14489999 833.000000 0.577350 0.577350 0.577350
18.32239914 11.12129974 0.14420000 846.000000 0.577350 0.577350 0.577350
18.32390022 11.12069988 0.14420000 855.000000 0.577350 0.577350 0.577350
18.32489967 11.11979961 0.14350000 863.000000 0.577350 0.577350 0.577350
18.32760048 11.12010002 0.14420000 869.000000 0.577350 0.577350 0.577350
18.32740021 11.11880016 0.14420000 863.000000 0.577350 0.577350 0.577350
18.32920074 11.11830044 0.14420000 867.000000 0.577350 0.577350 0.577350
18.33099937 11.11789989 0.14420000 842.000000 0.577350 0.577350 0.577350
18.33270073 11.11740017 0.14420000 851.000000 0.577350 0.577350 0.577350
18.33320045 11.11610031 0.14420000 854.000000 0.577350 0.577350 0.577350
18.33569908 11.11620045 0.14420000 854.000000 0.577350 0.577350 0.577350
18.33699989 11.11569977 0.14489999 870.000000 0.577350 0.577350 0.577350
18.33849907 11.11509991 0.14489999 876.000000 0.577350 0.577350 0.577350
18.34040070 11.11470032 0.14489999 874.000000 0.577350 0.577350 0.577350
18.34099960 11.11359978 0.14489999 874.000000 0.577350 0.577350 0.577350
18.34250069 11.11289978 0.14489999 882.000000 0.577350 0.577350 0.577350
18.34429932 11.11270046 0.14489999 888.000000 0.577350 0.577350 0.577350
18.34560013 11.11229992 0.14560001 899.000000 0.577350 0.577350 0.577350
18.34600067 11.11089993 0.14489999 907.000000 0.577350 0.577350 0.577350
18.34709930 11.10990047 0.14489999 909.000000 0.577350 0.577350 0.577350
18.34499931 11.10709953 0.14360000 898.000000 0.577350 0.577350 0.577350
18.34930038 11.10820007 0.14489999 929.000000 0.577350 0.577350 0.577350
18.35070038 11.10750008 0.14560001 937.000000 0.577350 0.577350 0.577350
18.35190010 11.10690022 0.14560001 951.000000 0.577350 0.577350 0.577350
18.35009956 11.10459995 0.14360000 945.000000 0.577350 0.577350 0.577350
18.35120010 11.10379982 0.14360000 953.000000 0.577350 0.577350 0.577350
18.35230064 11.10280037 0.14360000 956.000000 0.577350 0.577350 0.577350
18.35429955 11.10249996 0.14430000 954.000000 0.577350 0.577350 0.577350
18.35510063 11.10169983 0.14430000 940.000000 0.577350 0.577350 0.577350
18.35619926 11.10109997 0.14500000 937.000000 0.577350 0.577350 0.577350
18.35740089 11.10019970 0.14500000 929.000000 0.577350 0.577350 0.577350
18.35750008 11.09869957 0.14430000 907.000000 0.577350 0.577350 0.577350
18.35820007 11.09759998 0.14430000 915.000000 0.577350 0.577350 0.577350
18.35939980 11.09669971 0.14500000 908.000000 0.577350 0.577350 0.577350
18.23030090 11.25549984 0.14340000 921.000000 0.577350 0.577350 0.577350
18.23119926 11.25450039 0.14210001 897.000000 0.577350 0.577350 0.577350
18.23150063 11.25300026 0.14410000 888.000000 0.577350 0.577350 0.577350
18.23220062 11.25199986 0.14340000 872.000000 0.577350 0.577350 0.577350
18.23299980 11.25080013 0.14410000 875.000000 0.577350 0.577350 0.577350
18.23360062 11.24960041 0.14280000 861.000000 0.577350 0.577350 0.577350
18.23439980 11.24849987 0.14210001 856.000000 0.577350 0.577350 0.577350
18.23500061 11.24730015 0.14139999 861.000000 0.577350 0.577350 0.577350
18.23579979 11.24629974 0.14210001 883.000000 0.577350 0.577350 0.577350
18.23649979 11.24510002 0.14280000 894.000000 0.577350 0.577350 0.577350
18.23749924 11.24409962 0.14210001 902.000000 0.577350 0.577350 0.577350
18.23789978 11.24279976 0.14280000 919.000000 0.577350 0.577350 0.577350
18.23880005 11.24180031 0.14280000 919.000000 0.577350 0.577350 0.577350
18.23950005 11.24059963 0.14210001 902.000000 0.577350 0.577350 0.577350
18.24029922 11.23950005 0.14280000 911.000000 0.577350 0.577350 0.577350
18.24099922 11.23840046 0.14210001 903.000000 0.577350 0.577350 0.577350
18.24139977 11.23700047 0.14280000 905.000000 0.577350 0.577350 0.577350
18.24230003 11.23600006 0.14280000 919.000000 0.577350 0.577350 0.577350
18.24290085 11.23480034 0.14280000 924.000000 0.577350 0.577350 0.577350
18.24340057 11.23349953 0.14280000 951.000000 0.577350 0.577350 0.577350
18.24430084 11.23250008 0.14280000 957.000000 0.577350 0.577350 0.577350
18.24480057 11.23110008 0.14280000 973.000000 0.577350 0.577350 0.577350
18.24570084 11.23019981 0.14280000 976.000000 0.577350 0.577350 0.577350
18.24629974 11.22879982 0.14280000 957.000000 0.577350 0.577350 0.577350
18.24720001 11.22760010 0.14340000 954.000000 0.577350 0.577350 0.577350
18.24819946 11.22640038 0.14280000 946.000000 0.577350 0.577350 0.577350
18.24850082 11.22480011 0.14280000 941.000000 0.577350 0.577350 0.577350
18.24920082 11.22379971 0.14340000 927.000000 0.577350 0.577350 0.577350
18.25009918 11.22270012 0.14340000 911.000000 0.577350 0.577350 0.577350
18.25060081 11.22140026 0.14340000 900.000000 0.577350 0.577350 0.577350
18.25130081 11.22029972 0.14340000 903.000000 0.577350 0.577350 0.577350
18.25230026 11.21920013 0.14340000 903.000000 0.577350 0.577350 0.577350
18.25259972 11.21790028 0.14340000 933.000000 0.577350 0.577350 0.577350
18.25340080 11.21689987 0.14210001 955.000000 0.577350 0.577350 0.577350
18.25429916 11.21580029 0.14139999 982.000000 0.577350 0.577350 0.577350
18.25499916 11.21469975 0.14340000 1012.000000 0.577350 0.577350 0.577350
18.25580025 11.21350002 0.14340000 1028.000000 0.577350 0.577350 0.577350
18.25620079 11.21230030 0.14210001 1014.000000 0.577350 0.577350 0.577350
18.25679970 11.21100044 0.14340000 987.000000 0.577350 0.577350 0.577350
18.25769997 11.20989990 0.14410000 952.000000 0.577350 0.577350 0.577350
18.25869942 11.20890045 0.14210001 925.000000 0.577350 0.577350 0.577350
18.25919914 11.20750046 0.14210001 914.000000 0.577350 0.577350 0.577350
18.25989914 11.20629978 0.14210001 909.000000 0.577350 0.577350 0.577350
18.26090050 11.20499992 0.14210001 909.000000 0.577350 0.577350 0.577350
18.26149940 11.20380020 0.14210001 928.000000 0.577350 0.577350 0.577350
18.26239967 11.20289993 0.14210001 949.000000 0.577350 0.577350 0.577350
18.26359940 11.20180035 0.14340000 963.000000 0.577350 0.577350 0.577350
18.26359940 11.20030022 0.14280000 971.000000 0.577350 0.577350 0.577350
18.26449966 11.19939995 0.14280000 955.000000 0.577350 0.577350 0.577350
18.26549911 11.19839954 0.14210001 942.000000 0.577350 0.577350 0.577350
18.26600075 11.19709969 0.14280000 939.000000 0.577350 0.577350 0.577350
18.26670074 11.19600010 0.14210001 933.000000 0.577350 0.577350 0.577350
18.26740074 11.19480038 0.14280000 920.000000 0.577350 0.577350 0.577350
18.26819992 11.19359970 0.14280000 912.000000 0.577350 0.577350 0.577350
18.26919937 11.19229984 0.14280000 917.000000 0.577350 0.577350 0.577350
18.26980019 11.19089985 0.14280000 917.000000 0.577350 0.577350 0.577350
18.27059937 11.18970013 0.14280000 901.000000 0.577350 0.577350 0.577350
18.27160072 11.18879986 0.14340000 909.000000 0.577350 0.577350 0.577350
18.27190018 11.18750000 0.14340000 928.000000 0.577350 0.577350 0.577350
18.27260017 11.18630028 0.14340000 942.000000 0.577350 0.577350 0.577350
18.27330017 11.18509960 0.14340000 928.000000 0.577350 0.577350 0.577350
18.27379990 11.18379974 0.14340000 944.000000 0.577350 0.577350 0.577350
18.27479935 11.18290043 0.14280000 936.000000 0.577350 0.577350 0.577350
18.27519989 11.18159962 0.14340000 958.000000 0.577350 0.577350 0.577350
18.27589989 11.18039989 0.14340000 974.000000 0.577350 0.577350 0.577350
18.27680016 11.17930031 0.14210001 988.000000 0.577350 0.577350 0.577350
18.27750015 11.17800045 0.14210001 993.000000 0.577350 0.577350 0.577350
18.27799988 11.17640018 0.14210001 966.000000 0.577350 0.577350 0.577350
18.27890015 11.17529964 0.14340000 931.000000 0.577350 0.577350 0.577350
18.27949905 11.17409992 0.14210001 942.000000 0.577350 0.577350 0.577350
18.28009987 11.17280006 0.14210001 920.000000 0.577350 0.577350 0.577350
18.28100014 11.17179966 0.14280000 945.000000 0.577350 0.577350 0.577350
18.28170013 11.17070007 0.14480001 958.000000 0.577350 0.577350 0.577350
18.28219986 11.16950035 0.14210001 953.000000 0.577350 0.577350 0.577350
18.28289986 11.16819954 0.14210001 937.000000 0.577350 0.577350 0.577350
18.28350067 11.16699982 0.14210001 920.000000 0.577350 0.577350 0.577350
18.28479958 11.16619968 0.14280000 907.000000 0.577350 0.577350 0.577350
18.28520012 11.16489983 0.14280000 893.000000 0.577350 0.577350 0.577350
18.28580093 11.16370010 0.14280000 893.000000 0.577350 0.577350 0.577350
18.28689957 11.16279984 0.14280000 888.000000 0.577350 0.577350 0.577350
18.28750038 11.16160011 0.14280000 877.000000 0.577350 0.577350 0.577350
18.28829956 11.16049957 0.14280000 874.000000 0.577350 0.577350 0.577350
18.28910065 11.15939999 0.14280000 858.000000 0.577350 0.577350 0.577350
18.28969955 11.15810013 0.14280000 844.000000 0.577350 0.577350 0.577350
18.29039955 11.15699959 0.14280000 828.000000 0.577350 0.577350 0.577350
18.29140091 11.15590000 0.14340000 828.000000 0.577350 0.577350 0.577350
18.29190063 11.15460014 0.14280000 809.000000 0.577350 0.577350 0.577350
18.29269981 11.15330029 0.14340000 839.000000 0.577350 0.577350 0.577350
18.29319954 11.15190029 0.14340000 866.000000 0.577350 0.577350 0.577350
18.29389954 11.15060043 0.14340000 888.000000 0.577350 0.577350 0.577350
18.29459953 11.14960003 0.14340000 915.000000 0.577350 0.577350 0.577350
18.29560089 11.14850044 0.14340000 934.000000 0.577350 0.577350 0.577350
18.29619980 11.14739990 0.14139999 964.000000 0.577350 0.577350 0.577350
18.29750061 11.14659977 0.14410000 986.000000 0.577350 0.577350 0.577350
18.29800034 11.14529991 0.14280000 975.000000 0.577350 0.577350 0.577350
18.29879951 11.14420033 0.14210001 956.000000 0.577350 0.577350 0.577350
18.29980087 11.14330006 0.14410000 956.000000 0.577350 0.577350 0.577350
18.30010033 11.14179993 0.14210001 940.000000 0.577350 0.577350 0.577350
18.30069923 11.14070034 0.14210001 915.000000 0.577350 0.577350 0.577350
18.30150032 11.13949966 0.14280000 913.000000 0.577350 0.577350 0.577350
18.30260086 11.13869953 0.14280000 921.000000 0.577350 0.577350 0.577350
18.30310059 11.13739967 0.14210001 913.000000 0.577350 0.577350 0.577350
18.30430031 11.13650036 0.14280000 910.000000 0.577350 0.577350 0.577350
18.30489922 11.13529968 0.14210001 915.000000 0.577350 0.577350 0.577350
18.30629921 11.13459969 0.14280000 916.000000 0.577350 0.577350 0.577350
18.30710030 11.13350010 0.14280000 935.000000 0.577350 0.577350 0.577350
18.30780029 11.13239956 0.14280000 918.000000 0.577350 0.577350 0.577350
18.30850029 11.13129997 0.14280000 918.000000 0.577350 0.577350 0.577350
18.31010056 11.13070011 0.14350000 902.000000 0.577350 0.577350 0.577350
18.31080055 11.12969971 0.14280000 892.000000 0.577350 0.577350 0.577350
18.31150055 11.12880039 0.14350000 875.000000 0.577350 0.577350 0.577350
18.31250000 11.12790012 0.14350000 862.000000 0.577350 0.577350 0.577350
18.31329918 11.12679958 0.14350000 845.000000 0.577350 0.577350 0.577350
18.31399918 11.12570000 0.14280000 837.000000 0.577350 0.577350 0.577350
18.31369972 11.12399960 0.14139999 845.000000 0.577350 0.577350 0.577350
18.31710052 11.12440014 0.14350000 824.000000 0.577350 0.577350 0.577350
18.31859970 11.12380028 0.14350000 819.000000 0.577350 0.577350 0.577350
18.31719971 11.12139988 0.14210001 843.000000 0.577350 0.577350 0.577350
18.31929970 11.12110043 0.14280000 849.000000 0.577350 0.577350 0.577350
18.31900024 11.11929989 0.14210001 875.000000 0.577350 0.577350 0.577350
18.32040024 11.11859989 0.14210001 876.000000 0.577350 0.577350 0.577350
18.32130051 11.11760044 0.14210001 878.000000 0.577350 0.577350 0.577350
18.32340050 11.11760044 0.14210001 873.000000 0.577350 0.577350 0.577350
18.32329941 11.11629963 0.14210001 865.000000 0.577350 0.577350 0.577350
18.32489967 11.11569977 0.14280000 866.000000 0.577350 0.577350 0.577350
18.32659912 11.11530018 0.14280000 839.000000 0.577350 0.577350 0.577350
18.32830048 11.11470032 0.14280000 850.000000 0.577350 0.577350 0.577350
18.32889938 11.11349964 0.14219999 855.000000 0.577350 0.577350 0.577350
18.33119965 11.11349964 0.14280000 850.000000 0.577350 0.577350 0.577350
18.33259964 11.11299992 0.14280000 861.000000 0.577350 0.577350 0.577350
18.33419991 11.11260033 0.14290000 859.000000 0.577350 0.577350 0.577350
18.33600044 11.11209965 0.14350000 854.000000 0.577350 0.577350 0.577350
18.33670044 11.11100006 0.14290000 848.000000 0.577350 0.577350 0.577350
18.33839989 11.11050034 0.14290000 848.000000 0.577350 0.577350 0.577350
18.34040070 11.11030006 0.14360000 849.000000 0.577350 0.577350 0.577350
18.34199905 11.11009979 0.14360000 854.000000 0.577350 0.577350 0.577350
18.34219933 11.10849953 0.14360000 865.000000 0.577350 0.577350 0.577350
18.34350014 11.10770035 0.14360000 881.000000 0.577350 0.577350 0.577350
18.34079933 11.10459995 0.14219999 873.000000 0.577350 0.577350 0.577350
18.34589958 11.10620022 0.14360000 912.000000 0.577350 0.577350 0.577350
18.34770012 11.10569954 0.14360000 923.000000 0.577350 0.577350 0.577350
18.34910011 11.10519981 0.14360000 942.000000 0.577350 0.577350 0.577350
18.34620094 11.10229969 0.14219999 930.000000 0.577350 0.577350 0.577350
18.34749985 11.10149956 0.14219999 933.000000 0.577350 0.577350 0.577350
18.34860039 11.10060024 0.14219999 933.000000 0.577350 0.577350 0.577350
18.35090065 11.10050011 0.14219999 926.000000 0.577350 0.577350 0.577350
18.35210037 11.09990025 0.14290000 915.000000 0.577350 0.577350 0.577350
18.35359955 11.09959984 0.14290000 907.000000 0.577350 0.577350 0.577350
18.35490036 11.09879971 0.14290000 899.000000 0.577350 0.577350 0.577350
18.35479927 11.09710026 0.14290000 874.000000 0.577350 0.577350 0.577350
18.35580063 11.09619999 0.14290000 885.000000 0.577350 0.577350 0.577350
18.35750008 11.09560013 0.14290000 885.000000 0.577350 0.577350 0.577350
18.23010063 11.25549984 0.14139999 924.000000 0.577350 0.577350 0.577350
18.23130035 11.25450039 0.14010000 902.000000 0.577350 0.577350 0.577350
18.23159981 11.25310040 0.14210001 875.000000 0.577350 0.577350 0.577350
18.23209953 11.25189972 0.14210001 850.000000 0.577350 0.577350 0.577350
18.23299980 11.25080013 0.14210001 851.000000 0.577350 0.577350 0.577350
18.23360062 11.24960041 0.14070000 839.000000 0.577350 0.577350 0.577350
18.23419952 11.24839973 0.14070000 834.000000 0.577350 0.577350 0.577350
18.23489952 11.24730015 0.14010000 848.000000 0.577350 0.577350 0.577350
18.23570061 11.24619961 0.14070000 870.000000 0.577350 0.577350 0.577350
18.23649979 11.24510002 0.14070000 881.000000 0.577350 0.577350 0.577350
18.23760033 11.24419975 0.14070000 891.000000 0.577350 0.577350 0.577350
18.23789978 11.24279976 0.14139999 913.000000 0.577350 0.577350 0.577350
18.23889923 11.24180031 0.14070000 910.000000 0.577350 0.577350 0.577350
18.23940086 11.24059963 0.14070000 897.000000 0.577350 0.577350 0.577350
18.24029922 11.23939991 0.14070000 905.000000 0.577350 0.577350 0.577350
18.24090004 11.23840046 0.14070000 892.000000 0.577350 0.577350 0.577350
18.24139977 11.23700047 0.14070000 892.000000 0.577350 0.577350 0.577350
18.24220085 11.23589993 0.14139999 911.000000 0.577350 0.577350 0.577350
18.24279976 11.23470020 0.14070000 930.000000 0.577350 0.577350 0.577350
18.24329948 11.23349953 0.14070000 954.000000 0.577350 0.577350 0.577350
18.24430084 11.23250008 0.14070000 962.000000 0.577350 0.577350 0.577350
18.24489975 11.23120022 0.14070000 976.000000 0.577350 0.577350 0.577350
18.24570084 11.23019981 0.14070000 968.000000 0.577350 0.577350 0.577350
18.24659920 11.22900009 0.14139999 952.000000 0.577350 0.577350 0.577350
18.24720001 11.22760010 0.14210001 943.000000 0.577350 0.577350 0.577350
18.24830055 11.22640038 0.14139999 933.000000 0.577350 0.577350 0.577350
18.24880028 11.22500038 0.14139999 930.000000 0.577350 0.577350 0.577350
18.24930000 11.22389984 0.14139999 916.000000 0.577350 0.577350 0.577350
18.25009918 11.22270012 0.14139999 895.000000 0.577350 0.577350 0.577350
18.25060081 11.22140026 0.14210001 884.000000 0.577350 0.577350 0.577350
18.25130081 11.22029972 0.14139999 889.000000 0.577350 0.577350 0.577350
18.25219917 11.21920013 0.14210001 898.000000 0.577350 0.577350 0.577350
18.25259972 11.21790028 0.14210001 919.000000 0.577350 0.577350 0.577350
18.25370026 11.21700001 0.14070000 949.000000 0.577350 0.577350 0.577350
18.25419998 11.21580029 0.14010000 976.000000 0.577350 0.577350 0.577350
18.25480080 11.21459961 0.14210001 1001.000000 0.577350 0.577350 0.577350
18.25569916 11.21350002 0.14210001 1014.000000 0.577350 0.577350 0.577350
18.25639915 11.21240044 0.14070000 1006.000000 0.577350 0.577350 0.577350
18.25679970 11.21100044 0.14210001 982.000000 0.577350 0.577350 0.577350
18.25749969 11.20979977 0.14210001 952.000000 0.577350 0.577350 0.577350
18.25869942 11.20890045 0.14010000 930.000000 0.577350 0.577350 0.577350
18.25919914 11.20750046 0.14070000 927.000000 0.577350 0.577350 0.577350
18.26000023 11.20629978 0.14010000 920.000000 0.577350 0.577350 0.577350
18.26099968 11.20510006 0.14070000 912.000000 0.577350 0.577350 0.577350
18.26149940 11.20380020 0.14010000 928.000000 0.577350 0.577350 0.577350
18.26210022 11.20269966 0.14070000 939.000000 0.577350 0.577350 0.577350
18.26350021 11.20180035 0.14139999 950.000000 0.577350 0.577350 0.577350
18.26359940 11.20030022 0.14070000 960.000000 0.577350 0.577350 0.577350
18.26449966 11.19939995 0.14070000 949.000000 0.577350 0.577350 0.577350
18.26539993 11.19830036 0.14070000 936.000000 0.577350 0.577350 0.577350
18.26589966 11.19699955 0.14070000 939.000000 0.577350 0.577350 0.577350
18.26639938 11.19579983 0.14070000 928.000000 0.577350 0.577350 0.577350
18.26709938 11.19460011 0.14139999 917.000000 0.577350 0.577350 0.577350
18.26799965 11.19349957 0.14139999 906.000000 0.577350 0.577350 0.577350
18.26899910 11.19219971 0.14139999 907.000000 0.577350 0.577350 0.577350
18.26959991 11.19079971 0.14139999 912.000000 0.577350 0.577350 0.577350
18.27020073 11.18949986 0.14070000 896.000000 0.577350 0.577350 0.577350
18.27120018 11.18859959 0.14139999 907.000000 0.577350 0.577350 0.577350
18.27179909 11.18739986 0.14139999 931.000000 0.577350 0.577350 0.577350
18.27260017 11.18630028 0.14139999 950.000000 0.577350 0.577350 0.577350
18.27309990 11.18500042 0.14139999 942.000000 0.577350 0.577350 0.577350
18.27389908 11.18389988 0.14139999 950.000000 0.577350 0.577350 0.577350
18.27490044 11.18299961 0.14139999 945.000000 0.577350 0.577350 0.577350
18.27540016 11.18169975 0.14210001 969.000000 0.577350 0.577350 0.577350
18.27599907 11.18039989 0.14139999 985.000000 0.577350 0.577350 0.577350
18.27689934 11.17940044 0.14010000 991.000000 0.577350 0.577350 0.577350
18.27750015 11.17800045 0.14010000 999.000000 0.577350 0.577350 0.577350
18.27779961 11.17630005 0.14070000 974.000000 0.577350 0.577350 0.577350
18.27879906 11.17520046 0.14210001 944.000000 0.577350 0.577350 0.577350
18.27960014 11.17409992 0.14070000 942.000000 0.577350 0.577350 0.577350
18.27980042 11.17269993 0.14010000 926.000000 0.577350 0.577350 0.577350
18.28089905 11.17169952 0.14070000 947.000000 0.577350 0.577350 0.577350
18.28170013 11.17070007 0.14280000 961.000000 0.577350 0.577350 0.577350
18.28240013 11.16959953 0.14010000 947.000000 0.577350 0.577350 0.577350
18.28280067 11.16819954 0.14070000 937.000000 0.577350 0.577350 0.577350
18.28350067 11.16699982 0.14070000 923.000000 0.577350 0.577350 0.577350
18.28459930 11.16609955 0.14070000 909.000000 0.577350 0.577350 0.577350
18.28529930 11.16489983 0.14139999 888.000000 0.577350 0.577350 0.577350
18.28580093 11.16370010 0.14139999 885.000000 0.577350 0.577350 0.577350
18.28669930 11.16269970 0.14070000 871.000000 0.577350 0.577350 0.577350
18.28739929 11.16149998 0.14070000 858.000000 0.577350 0.577350 0.577350
18.28809929 11.16040039 0.14139999 842.000000 0.577350 0.577350 0.577350
18.28879929 11.15929985 0.14139999 817.000000 0.577350 0.577350 0.577350
18.28960037 11.15810013 0.14139999 801.000000 0.577350 0.577350 0.577350
18.29039955 11.15699959 0.14139999 790.000000 0.577350 0.577350 0.577350
18.29109955 11.15569973 0.14139999 790.000000 0.577350 0.577350 0.577350
18.29170036 11.15439987 0.14139999 779.000000 0.577350 0.577350 0.577350
18.29240036 11.15320015 0.14139999 823.000000 0.577350 0.577350 0.577350
18.29319954 11.15190029 0.14210001 847.000000 0.577350 0.577350 0.577350
18.29389954 11.15060043 0.14139999 880.000000 0.577350 0.577350 0.577350
18.29439926 11.14949989 0.14210001 915.000000 0.577350 0.577350 0.577350
18.29529953 11.14840031 0.14139999 937.000000 0.577350 0.577350 0.577350
18.29610062 11.14729977 0.14010000 969.000000 0.577350 0.577350 0.577350
18.29719925 11.14649963 0.14210001 977.000000 0.577350 0.577350 0.577350
18.29789925 11.14519978 0.14070000 967.000000 0.577350 0.577350 0.577350
18.29879951 11.14420033 0.14010000 953.000000 0.577350 0.577350 0.577350
18.29920006 11.14299965 0.14210001 961.000000 0.577350 0.577350 0.577350
18.29990005 11.14169979 0.14070000 945.000000 0.577350 0.577350 0.577350
18.30060005 11.14060020 0.14070000 926.000000 0.577350 0.577350 0.577350
18.30109978 11.13930035 0.14070000 931.000000 0.577350 0.577350 0.577350
18.30220032 11.13850021 0.14070000 940.000000 0.577350 0.577350 0.577350
18.30290031 11.13720036 0.14070000 937.000000 0.577350 0.577350 0.577350
18.30389977 11.13630009 0.14070000 934.000000 0.577350 0.577350 0.577350
18.30439949 11.13500023 0.14070000 932.000000 0.577350 0.577350 0.577350
18.30540085 11.13399982 0.14139999 937.000000 0.577350 0.577350 0.577350
18.30620003 11.13290024 0.14139999 942.000000 0.577350 0.577350 0.577350
18.30680084 11.13179970 0.14139999 926.000000 0.577350 0.577350 0.577350
18.30719948 11.13049984 0.14139999 924.000000 0.577350 0.577350 0.577350
18.30870056 11.12979984 0.14139999 916.000000 0.577350 0.577350 0.577350
18.30940056 11.12880039 0.14139999 910.000000 0.577350 0.577350 0.577350
18.31019974 11.12800026 0.14139999 897.000000 0.577350 0.577350 0.577350
18.31100082 11.12709999 0.14139999 886.000000 0.577350 0.577350 0.577350
18.31159973 11.12580013 0.14139999 872.000000 0.577350 0.577350 0.577350
18.31220055 11.12460041 0.14139999 859.000000 0.577350 0.577350 0.577350
18.31240082 11.12320042 0.14010000 864.000000 0.577350 0.577350 0.577350
18.31459999 11.12290001 0.14210001 840.000000 0.577350 0.577350 0.577350
18.31570053 11.12209988 0.14210001 832.000000 0.577350 0.577350 0.577350
18.31529999 11.12020016 0.14010000 864.000000 0.577350 0.577350 0.577350
18.31679916 11.11950016 0.14139999 872.000000 0.577350 0.577350 0.577350
18.31690025 11.11800003 0.14080000 910.000000 0.577350 0.577350 0.577350
18.31809998 11.11719990 0.14080000 905.000000 0.577350 0.577350 0.577350
18.31879997 11.11610031 0.14010000 905.000000 0.577350 0.577350 0.577350
18.32029915 11.11569977 0.14080000 889.000000 0.577350 0.577350 0.577350
18.32049942 11.11460018 0.14080000 881.000000 0.577350 0.577350 0.577350
18.32180023 11.11380005 0.14080000 881.000000 0.577350 0.577350 0.577350
18.32320023 11.11320019 0.14080000 852.000000 0.577350 0.577350 0.577350
18.32460022 11.11250019 0.14080000 860.000000 0.577350 0.577350 0.577350
18.32539940 11.11139965 0.14080000 873.000000 0.577350 0.577350 0.577350
18.32719994 11.11110020 0.14080000 866.000000 0.577350 0.577350 0.577350
18.32839966 11.11040020 0.14150000 871.000000 0.577350 0.577350 0.577350
18.32999992 11.10999966 0.14150000 863.000000 0.577350 0.577350 0.577350
18.33180046 11.10949993 0.14150000 855.000000 0.577350 0.577350 0.577350
18.33239937 11.10840034 0.14150000 844.000000 0.577350 0.577350 0.577350
18.33399963 11.10779953 0.14150000 831.000000 0.577350 0.577350 0.577350
18.33600044 11.10770035 0.14150000 829.000000 0.577350 0.577350 0.577350
18.33760071 11.10739994 0.14219999 829.000000 0.577350 0.577350 0.577350
18.33769989 11.10589981 0.14150000 848.000000 0.577350 0.577350 0.577350
18.33900070 11.10509968 0.14150000 867.000000 0.577350 0.577350 0.577350
18.33650017 11.10200024 0.14010000 872.000000 0.577350 0.577350 0.577350
18.34160042 11.10359955 0.14219999 897.000000 0.577350 0.577350 0.577350
18.34399986 11.10340023 0.14219999 908.000000 0.577350 0.577350 0.577350
18.34530067 11.10289955 0.14219999 933.000000 0.577350 0.577350 0.577350
18.34189987 11.09959984 0.14020000 913.000000 0.577350 0.577350 0.577350
18.34300041 11.09879971 0.14020000 910.000000 0.577350 0.577350 0.577350
18.34429932 11.09809971 0.14020000 897.000000 0.577350 0.577350 0.577350
18.34670067 11.09790039 0.14090000 887.000000 0.577350 0.577350 0.577350
18.34810066 11.09749985 0.14090000 881.000000 0.577350 0.577350 0.577350
18.34959984 11.09710026 0.14090000 865.000000 0.577350 0.577350 0.577350
18.35140038 11.09669971 0.14160000 863.000000 0.577350 0.577350 0.577350
18.35110092 11.09480000 0.14090000 849.000000 0.577350 0.577350 0.577350
18.35219955 11.09399986 0.14090000 857.000000 0.577350 0.577350 0.577350
18.35449982 11.09379959 0.14160000 857.000000 0.577350 0.577350 0.577350
18.23030090 11.25559998 0.14010000 929.000000 0.577350 0.577350 0.577350
18.23130035 11.25450039 0.13869999 918.000000 0.577350 0.577350 0.577350
18.23159981 11.25310040 0.14070000 872.000000 0.577350 0.577350 0.577350
18.23189926 11.25179958 0.14010000 842.000000 0.577350 0.577350 0.577350
18.23279953 11.25070000 0.14070000 834.000000 0.577350 0.577350 0.577350
18.23360062 11.24960041 0.13940001 834.000000 0.577350 0.577350 0.577350
18.23410034 11.24829960 0.13869999 826.000000 0.577350 0.577350 0.577350
18.23489952 11.24730015 0.13800000 845.000000 0.577350 0.577350 0.577350
18.23559952 11.24619961 0.13869999 861.000000 0.577350 0.577350 0.577350
18.23670006 11.24520016 0.13940001 870.000000 0.577350 0.577350 0.577350
18.23749924 11.24409962 0.13869999 883.000000 0.577350 0.577350 0.577350
18.23789978 11.24279976 0.13940001 897.000000 0.577350 0.577350 0.577350
18.23889923 11.24180031 0.13940001 900.000000 0.577350 0.577350 0.577350
18.23940086 11.24050045 0.13869999 894.000000 0.577350 0.577350 0.577350
18.24020004 11.23939991 0.13940001 897.000000 0.577350 0.577350 0.577350
18.24080086 11.23830032 0.13869999 886.000000 0.577350 0.577350 0.577350
18.24150085 11.23709965 0.13940001 881.000000 0.577350 0.577350 0.577350
18.24209976 11.23589993 0.13940001 900.000000 0.577350 0.577350 0.577350
18.24270058 11.23470020 0.13940001 924.000000 0.577350 0.577350 0.577350
18.24349976 11.23359966 0.13940001 943.000000 0.577350 0.577350 0.577350
18.24419975 11.23239994 0.13940001 962.000000 0.577350 0.577350 0.577350
18.24500084 11.23130035 0.13940001 973.000000 0.577350 0.577350 0.577350
18.24570084 11.23019981 0.13940001 971.000000 0.577350 0.577350 0.577350
18.24670029 11.22910023 0.13940001 954.000000 0.577350 0.577350 0.577350
18.24729919 11.22770023 0.14010000 944.000000 0.577350 0.577350 0.577350
18.24830055 11.22640038 0.13940001 933.000000 0.577350 0.577350 0.577350
18.24909973 11.22519970 0.13940001 927.000000 0.577350 0.577350 0.577350
18.24950027 11.22399998 0.14010000 914.000000 0.577350 0.577350 0.577350
18.25020027 11.22280025 0.14010000 886.000000 0.577350 0.577350 0.577350
18.25070000 11.22140026 0.14010000 870.000000 0.577350 0.577350 0.577350
18.25139999 11.22039986 0.14010000 886.000000 0.577350 0.577350 0.577350
18.25230026 11.21930027 0.14010000 895.000000 0.577350 0.577350 0.577350
18.25250053 11.21790028 0.14010000 917.000000 0.577350 0.577350 0.577350
18.25370026 11.21700001 0.13869999 955.000000 0.577350 0.577350 0.577350
18.25419998 11.21580029 0.13800000 987.000000 0.577350 0.577350 0.577350
18.25480080 11.21459961 0.14010000 990.000000 0.577350 0.577350 0.577350
18.25559998 11.21339989 0.14010000 998.000000 0.577350 0.577350 0.577350
18.25659943 11.21249962 0.13869999 998.000000 0.577350 0.577350 0.577350
18.25679970 11.21100044 0.14010000 976.000000 0.577350 0.577350 0.577350
18.25749969 11.20979977 0.14070000 955.000000 0.577350 0.577350 0.577350
18.25880051 11.20899963 0.13869999 944.000000 0.577350 0.577350 0.577350
18.25930023 11.20759964 0.13869999 938.000000 0.577350 0.577350 0.577350
18.26009941 11.20639992 0.13869999 933.000000 0.577350 0.577350 0.577350
18.26110077 11.20520020 0.13869999 923.000000 0.577350 0.577350 0.577350
18.26160049 11.20390034 0.13869999 928.000000 0.577350 0.577350 0.577350
18.26210022 11.20269966 0.13869999 933.000000 0.577350 0.577350 0.577350
18.26350021 11.20180035 0.14010000 944.000000 0.577350 0.577350 0.577350
18.26379967 11.20049953 0.13940001 952.000000 0.577350 0.577350 0.577350
18.26460075 11.19939995 0.13940001 947.000000 0.577350 0.577350 0.577350
18.26530075 11.19820023 0.13869999 931.000000 0.577350 0.577350 0.577350
18.26569939 11.19690037 0.13940001 936.000000 0.577350 0.577350 0.577350
18.26639938 11.19579983 0.13940001 922.000000 0.577350 0.577350 0.577350
18.26689911 11.19449997 0.13940001 915.000000 0.577350 0.577350 0.577350
18.26790047 11.19340038 0.13940001 898.000000 0.577350 0.577350 0.577350
18.26889992 11.19209957 0.13940001 901.000000 0.577350 0.577350 0.577350
18.26930046 11.19060040 0.13940001 909.000000 0.577350 0.577350 0.577350
18.26989937 11.18929958 0.13940001 901.000000 0.577350 0.577350 0.577350
18.27120018 11.18859959 0.14010000 906.000000 0.577350 0.577350 0.577350
18.27160072 11.18729973 0.14010000 928.000000 0.577350 0.577350 0.577350
18.27249908 11.18620014 0.14010000 944.000000 0.577350 0.577350 0.577350
18.27300072 11.18500042 0.14010000 939.000000 0.577350 0.577350 0.577350
18.27389908 11.18389988 0.14010000 950.000000 0.577350 0.577350 0.577350
18.27479935 11.18290043 0.13940001 945.000000 0.577350 0.577350 0.577350
18.27540016 11.18169975 0.14010000 966.000000 0.577350 0.577350 0.577350
18.27610016 11.18050003 0.14010000 982.000000 0.577350 0.577350 0.577350
18.27689934 11.17940044 0.13869999 983.000000 0.577350 0.577350 0.577350
18.27739906 11.17800045 0.13869999 996.000000 0.577350 0.577350 0.577350
18.27779961 11.17630005 0.13869999 972.000000 0.577350 0.577350 0.577350
18.27879906 11.17520046 0.14010000 955.000000 0.577350 0.577350 0.577350
18.27960014 11.17409992 0.13869999 942.000000 0.577350 0.577350 0.577350
18.27980042 11.17259979 0.13869999 923.000000 0.577350 0.577350 0.577350
18.28079987 11.17169952 0.13940001 937.000000 0.577350 0.577350 0.577350
18.28170013 11.17070007 0.14139999 950.000000 0.577350 0.577350 0.577350
18.28230095 11.16959953 0.13869999 937.000000 0.577350 0.577350 0.577350
18.28280067 11.16819954 0.13869999 934.000000 0.577350 0.577350 0.577350
18.28350067 11.16699982 0.13869999 918.000000 0.577350 0.577350 0.577350
18.28459930 11.16609955 0.13940001 915.000000 0.577350 0.577350 0.577350
18.28520012 11.16489983 0.13940001 893.000000 0.577350 0.577350 0.577350
18.28569984 11.16359997 0.13940001 888.000000 0.577350 0.577350 0.577350
18.28680038 11.16269970 0.13940001 871.000000 0.577350 0.577350 0.577350
18.28739929 11.16149998 0.13940001 850.000000 0.577350 0.577350 0.577350
18.28809929 11.16040039 0.13940001 817.000000 0.577350 0.577350 0.577350
18.28840065 11.15900040 0.13940001 793.000000 0.577350 0.577350 0.577350
18.28949928 11.15799999 0.13940001 771.000000 0.577350 0.577350 0.577350
18.29019928 11.15690041 0.13940001 766.000000 0.577350 0.577350 0.577350
18.29080009 11.15550041 0.14010000 766.000000 0.577350 0.577350 0.577350
18.29140091 11.15429974 0.13940001 766.000000 0.577350 0.577350 0.577350
18.29220009 11.15299988 0.14010000 814.000000 0.577350 0.577350 0.577350
18.29319954 11.15190029 0.14010000 844.000000 0.577350 0.577350 0.577350
18.29389954 11.15069962 0.14010000 888.000000 0.577350 0.577350 0.577350
18.29439926 11.14949989 0.14010000 931.000000 0.577350 0.577350 0.577350
18.29540062 11.14840031 0.14010000 950.000000 0.577350 0.577350 0.577350
18.29610062 11.14729977 0.13800000 975.000000 0.577350 0.577350 0.577350
18.29710007 11.14640045 0.14070000 980.000000 0.577350 0.577350 0.577350
18.29789925 11.14519978 0.13940001 969.000000 0.577350 0.577350 0.577350
18.29879951 11.14420033 0.13869999 953.000000 0.577350 0.577350 0.577350
18.29910088 11.14290047 0.14010000 959.000000 0.577350 0.577350 0.577350
18.29990005 11.14169979 0.13869999 942.000000 0.577350 0.577350 0.577350
18.30060005 11.14060020 0.13869999 929.000000 0.577350 0.577350 0.577350
18.30100060 11.13920021 0.13940001 945.000000 0.577350 0.577350 0.577350
18.30200005 11.13829994 0.13940001 953.000000 0.577350 0.577350 0.577350
18.30279922 11.13720036 0.13869999 951.000000 0.577350 0.577350 0.577350
18.30369949 11.13619995 0.13940001 956.000000 0.577350 0.577350 0.577350
18.30410004 11.13479996 0.13869999 951.000000 0.577350 0.577350 0.577350
18.30500031 11.13379955 0.13940001 948.000000 0.577350 0.577350 0.577350
18.30579948 11.13269997 0.13940001 942.000000 0.577350 0.577350 0.577350
18.30620003 11.13140011 0.14010000 924.000000 0.577350 0.577350 0.577350
18.30680084 11.13020039 0.13940001 923.000000 0.577350 0.577350 0.577350
18.30780029 11.12930012 0.13940001 921.000000 0.577350 0.577350 0.577350
18.30859947 11.12839985 0.13940001 926.000000 0.577350 0.577350 0.577350
18.30949974 11.12749958 0.14010000 918.000000 0.577350 0.577350 0.577350
18.31010056 11.12650013 0.14010000 915.000000 0.577350 0.577350 0.577350
18.31069946 11.12530041 0.14010000 896.000000 0.577350 0.577350 0.577350
18.31119919 11.12399960 0.13940001 886.000000 0.577350 0.577350 0.577350
18.31189919 11.12290001 0.13810000 896.000000 0.577350 0.577350 0.577350
18.31329918 11.12220001 0.14010000 859.000000 0.577350 0.577350 0.577350
18.31419945 11.12110043 0.14010000 856.000000 0.577350 0.577350 0.577350
18.31439972 11.11970043 0.13869999 891.000000 0.577350 0.577350 0.577350
18.31529999 11.11870003 0.13940001 899.000000 0.577350 0.577350 0.577350
18.31570053 11.11730003 0.13869999 942.000000 0.577350 0.577350 0.577350
18.31669998 11.11639977 0.13869999 935.000000 0.577350 0.577350 0.577350
18.31749916 11.11530018 0.13869999 932.000000 0.577350 0.577350 0.577350
18.31850052 11.11460018 0.13869999 907.000000 0.577350 0.577350 0.577350
18.31889915 11.11359978 0.13869999 899.000000 0.577350 0.577350 0.577350
18.31959915 11.11250019 0.13940001 905.000000 0.577350 0.577350 0.577350
18.32130051 11.11200047 0.13940001 873.000000 0.577350 0.577350 0.577350
18.32189941 11.11089993 0.13940001 878.000000 0.577350 0.577350 0.577350
18.32299995 11.10990047 0.13869999 895.000000 0.577350 0.577350 0.577350
18.32430077 11.10929966 0.13940001 889.000000 0.577350 0.577350 0.577350
18.32519913 11.10849953 0.13940001 895.000000 0.577350 0.577350 0.577350
18.32670021 11.10799980 0.13940001 887.000000 0.577350 0.577350 0.577350
18.32810020 11.10729980 0.14010000 868.000000 0.577350 0.577350 0.577350
18.32880020 11.10620022 0.13940001 852.000000 0.577350 0.577350 0.577350
18.33009911 11.10540009 0.13940001 835.000000 0.577350 0.577350 0.577350
18.33189964 11.10519981 0.14010000 836.000000 0.577350 0.577350 0.577350
18.33309937 11.10470009 0.14010000 833.000000 0.577350 0.577350 0.577350
18.33349991 11.10330009 0.14010000 860.000000 0.577350 0.577350 0.577350
18.33480072 11.10249996 0.14010000 874.000000 0.577350 0.577350 0.577350
18.33259964 11.09959984 0.13880000 890.000000 0.577350 0.577350 0.577350
18.33709908 11.10089970 0.14010000 899.000000 0.577350 0.577350 0.577350
18.33959961 11.10079956 0.14020000 905.000000 0.577350 0.577350 0.577350
18.34090042 11.10019970 0.14020000 926.000000 0.577350 0.577350 0.577350
18.33769989 11.09710026 0.13880000 904.000000 0.577350 0.577350 0.577350
18.33869934 11.09619999 0.13880000 890.000000 0.577350 0.577350 0.577350
18.34009933 11.09549999 0.13880000 869.000000 0.577350 0.577350 0.577350
18.34210014 11.09519958 0.13880000 858.000000 0.577350 0.577350 0.577350
18.34370041 11.09480000 0.13950001 853.000000 0.577350 0.577350 0.577350
